# .PCD v0.7 - Point Cloud Data file format
VERSION 0.7
FIELDS x y z rgb
SIZE 4 4 4 4
TYPE F F F U
COUNT 1 1 1 1
WIDTH 726
HEIGHT 1
VIEWPOINT 0 0 0 1 0 0 0
POINTS 726
DATA ascii
23.552000045776367 -6.900000095367432 2.4600000381469727 16777471
24.77199935913086 -7.928999900817871 0.004999999888241291 16777471
16.454999923706055 -9.78499984741211 0.3009999990463257 16777471
27.90999984741211 -7.880000114440918 3.0490000247955322 16777471
17.033000946044922 -8.270999908447266 0.014000000432133675 16777471
21.527999877929688 -7.3480000495910645 1.5490000247955322 16777471
19.770000457763672 -7.4070000648498535 0.019999999552965164 16777471
27.72100067138672 -8.57800006866455 0.014000000432133675 16777471
16.04400062561035 -7.340000152587891 1.0850000381469727 16777471
27.608999252319336 -9.550000190734863 3.0439999103546143 16777471
24.457000732421875 -8.298999786376953 2.7100000381469727 16777471
14.572999954223633 -8.083999633789062 2.7209999561309814 16777471
17.687999725341797 -8.100000381469727 2.746999979019165 16777471
17.655000686645508 -7.428999900817871 0.013000000268220901 16777471
25.136999130249023 -8.616000175476074 3.0439999103546143 16777471
22.165000915527344 -9.85200023651123 2.0889999866485596 16777471
15.552000045776367 -8.178999900817871 3.058000087738037 16777471
28.12299919128418 -8.145999908447266 3.046999931335449 16777471
18.593000411987305 -7.791999816894531 0.017999999225139618 16777471
20.03700065612793 -9.734000205993652 3.0490000247955322 16777471
21.01300048828125 -7.348999977111816 2.7219998836517334 16777471
15.032999992370605 -7.3470001220703125 3.0299999713897705 16777471
15.586999893188477 -8.432999610900879 2.7300000190734863 16777471
18.020999908447266 -9.800000190734863 2.444999933242798 16777471
26.267000198364258 -8.5600004196167 0.009999999776482582 16777471
23.952999114990234 -7.216000080108643 0.00800000037997961 16777471
21.393999099731445 -9.5 0.026000000536441803 16777471
23.569000244140625 -7.5 0.00800000037997961 16777471
17.354999542236328 -7.335999965667725 2.7160000801086426 16777471
18.291000366210938 -8.630000114440918 3.0309998989105225 16777471
15.064000129699707 -7.3420000076293945 0.972000002861023 16777471
15.821000099182129 -8.392999649047852 0.012000000104308128 16777471
25.016000747680664 -8.418000221252441 0.004999999888241291 16777471
22.131999969482422 -9.711999893188477 3.0480000972747803 16777471
25.427000045776367 -7.9710001945495605 0.004000000189989805 16777471
14.612000465393066 -7.35099983215332 2.9200000762939453 16777471
17.4060001373291 -7.341000080108643 0.8889999985694885 16777471
22.268999099731445 -9.946000099182129 0.5350000262260437 16777471
25.44300079345703 -7.544000148773193 0.004999999888241291 16777471
26.865999221801758 -9.593999862670898 0.008999999612569809 16777471
27.003999710083008 -8.842000007629395 0.014000000432133675 16777471
24.77899932861328 -7.835999965667725 0.004000000189989805 16777471
20.384000778198242 -7.34499979019165 1.2510000467300415 16777471
27.687000274658203 -7.422999858856201 0.013000000268220901 16777471
18.981000900268555 -7.3460001945495605 0.4690000116825104 16777471
22.11199951171875 -9.829999923706055 2.309000015258789 16777471
27.93400001525879 -8.529000282287598 0.014000000432133675 16777471
14.79699993133545 -9.793999671936035 2.6059999465942383 16777471
16.687000274658203 -7.539000034332275 3.055000066757202 16777471
15.961999893188477 -9.052000045776367 0.013000000268220901 16777471
16.59000015258789 -7.589000225067139 3.053999900817871 16777471
24.437000274658203 -10.005000114440918 2.2269999980926514 16777471
15.699999809265137 -8.175999641418457 3.055000066757202 16777471
22.267000198364258 -9.927000045776367 1.7400000095367432 16777471
24.804000854492188 -9.54699993133545 3.0420000553131104 16777471
18.875 -7.3460001945495605 2.3570001125335693 16777471
18.197999954223633 -9.314000129699707 0.014999999664723873 16777471
17.979999542236328 -7.790999889373779 3.052999973297119 16777471
25.048999786376953 -7.3480000495910645 3.055000066757202 16777471
26.986000061035156 -9.807000160217285 3.059999942779541 16777471
14.97700023651123 -9.081000328063965 0.009999999776482582 16777471
17.73900032043457 -7.343999862670898 2.0290000438690186 16777471
16.0939998626709 -8.428999900817871 2.7260000705718994 16777471
15.281999588012695 -9.270999908447266 3.053999900817871 16777471
22.976999282836914 -9.140000343322754 0.01899999938905239 16777471
22.464000701904297 -7.349999904632568 0.996999979019165 16777471
18.45199966430664 -7.5329999923706055 0.01600000075995922 16777471
22.566999435424805 -7.031000137329102 0.902999997138977 16777471
25.24799919128418 -10.038000106811523 2.9660000801086426 16777471
21.5 -9.776000022888184 0.026000000536441803 16777471
16.582000732421875 -7.340000152587891 1.6160000562667847 16777471
22.246000289916992 -7.353000164031982 1.6299999952316284 16777471
19.413000106811523 -7.771999835968018 3.058000087738037 16777471
14.812000274658203 -9.781999588012695 0.0860000029206276 16777471
22.643999099731445 -7.052999973297119 0.03099999949336052 16777471
19.038000106811523 -8.034000396728516 2.8329999446868896 16777471
19.191999435424805 -8.357999801635742 3.056999921798706 16777471
19.79199981689453 -7.4710001945495605 1.8250000476837158 16777471
26.1560001373291 -10.04699993133545 1.5770000219345093 16777471
16.761999130249023 -8.288000106811523 2.7009999752044678 16777471
20.042999267578125 -8.967000007629395 3.053999900817871 16777471
16.152000427246094 -7.335000038146973 2.575000047683716 16777471
15.949000358581543 -9.793999671936035 2.446000099182129 16777471
22.118999481201172 -7.820000171661377 0.024000000208616257 16777471
14.668999671936035 -9.73799991607666 0.012000000104308128 16777471
14.878999710083008 -7.3420000076293945 0.9919999837875366 16777471
21.614999771118164 -10.067999839782715 0.8199999928474426 16777471
23.858999252319336 -8.265999794006348 0.006000000052154064 16777471
16.63800048828125 -7.336999893188477 2.183000087738037 16777471
18.441999435424805 -9.78499984741211 0.15700000524520874 16777471
16.591999053955078 -9.786999702453613 0.36000001430511475 16777471
24.27899932861328 -9.652999877929688 0.010999999940395355 16777471
18.086000442504883 -9.793999671936035 0.8960000276565552 16777471
27.201000213623047 -8.072999954223633 2.7780001163482666 16777471
26.658000946044922 -6.927999973297119 0.10499999672174454 16777471
22.607999801635742 -8.46500015258789 0.02800000086426735 16777471
22.44099998474121 -7.354000091552734 1.7719999551773071 16777471
14.954000473022461 -8.923999786376953 3.055000066757202 16777471
19.79599952697754 -9.142999649047852 0.01899999938905239 16777471
17.892000198364258 -7.3460001945495605 1.690999984741211 16777471
19.097999572753906 -9.23799991607666 0.014999999664723873 16777471
25.12299919128418 -6.922999858856201 0.17800000309944153 16777471
22.089000701904297 -7.3520002365112305 2.4860000610351562 16777471
23.74799919128418 -8.930000305175781 0.007000000216066837 16777471
24.555999755859375 -7.375999927520752 3.056999921798706 16777471
15.66100025177002 -7.3379998207092285 2.8910000324249268 16777471
26.98200035095215 -8.704999923706055 3.0399999618530273 16777471
19.485000610351562 -7.34499979019165 2.7019999027252197 16777471
26.847000122070312 -6.913000106811523 1.6419999599456787 16777471
17.04400062561035 -8.317000389099121 3.049999952316284 16777471
14.6899995803833 -7.339000225067139 2.48799991607666 16777471
23.72599983215332 -9.222000122070312 3.0439999103546143 16777471
15.069000244140625 -7.752999782562256 0.3919999897480011 16777471
25.790000915527344 -8.517000198364258 2.802000045776367 16777471
17.68899917602539 -8.394000053405762 2.746999979019165 16777471
26.135000228881836 -7.001999855041504 0.023000000044703484 16777471
22.34000015258789 -7.353000164031982 0.6700000166893005 16777471
24.10700035095215 -8.675000190734863 0.008999999612569809 16777471
24.510000228881836 -8.614999771118164 0.004999999888241291 16777471
27.437999725341797 -8.0649995803833 3.0460000038146973 16777471
15.180000305175781 -7.3420000076293945 1.0759999752044678 16777471
20.070999145507812 -9.595000267028809 3.049999952316284 16777471
17.82699966430664 -9.791999816894531 0.5910000205039978 16777471
15.276000022888184 -7.752999782562256 0.6970000267028809 16777471
25.260000228881836 -6.9710001945495605 0.37700000405311584 16777471
17.75200080871582 -9.793999671936035 0.859000027179718 16777471
18.695999145507812 -7.705999851226807 3.0230000019073486 16777471
22.7549991607666 -7.883999824523926 3.0510001182556152 16777471
22.44499969482422 -9.645999908447266 3.0480000972747803 16777471
22.25200080871582 -7.607999801635742 3.049999952316284 16777471
17.340999603271484 -9.538000106811523 3.055000066757202 16777471
28.174999237060547 -6.928999900817871 2.440999984741211 16777471
27.56800079345703 -8.65999984741211 0.012000000104308128 16777471
21.816999435424805 -7.3480000495910645 2.0880000591278076 16777471
21.974000930786133 -7.801000118255615 3.053999900817871 16777471
18.07200050354004 -9.800000190734863 2.4200000762939453 16777471
19.56399917602539 -7.440000057220459 1.6109999418258667 16777471
26.476999282836914 -9.050999641418457 3.0450000762939453 16777471
16.695999145507812 -9.789999961853027 0.7860000133514404 16777471
18.009000778198242 -9.144000053405762 3.055000066757202 16777471
26.792999267578125 -10.008999824523926 0.22100000083446503 16777471
14.701000213623047 -8.397000312805176 0.008999999612569809 16777471
26.735000610351562 -10.026000022888184 2.382999897003174 16777471
16.91900062561035 -9.184000015258789 3.053999900817871 16777471
20.760000228881836 -9.324000358581543 3.055000066757202 16777471
26.316999435424805 -7.743000030517578 3.049999952316284 16777471
24.937999725341797 -8.187999725341797 0.004999999888241291 16777471
26.893999099731445 -8.211999893188477 0.013000000268220901 16777471
15.187999725341797 -8.258999824523926 0.008999999612569809 16777471
14.746999740600586 -7.336999893188477 2.8540000915527344 16777471
18.652000427246094 -9.394000053405762 0.01600000075995922 16777471
20.66900062561035 -8.029000282287598 0.02199999988079071 16777471
20.375 -10.01099967956543 2.6570000648498535 16777471
25.492000579833984 -7.698999881744385 3.049999952316284 16777471
15.25 -8.32800006866455 2.7219998836517334 16777471
23.983999252319336 -9.404000282287598 0.008999999612569809 16777471
15.425000190734863 -9.791000366210938 2.197999954223633 16777471
24.798999786376953 -7.882999897003174 3.052000045776367 16777471
20.263999938964844 -7.3460001945495605 1.4390000104904175 16777471
22.461000442504883 -7.309999942779541 0.41999998688697815 16777471
17.98699951171875 -9.793999671936035 0.9179999828338623 16777471
22.413000106811523 -9.439000129699707 0.02199999988079071 16777471
24.39900016784668 -9.331999778747559 3.0420000553131104 16777471
25.562999725341797 -7.2210001945495605 0.008999999612569809 16777471
21.416000366210938 -8.505000114440918 2.7929999828338623 16777471
17.011999130249023 -8.402999877929688 0.014000000432133675 16777471
22.410999298095703 -8.302000045776367 2.7149999141693115 16777471
17.695999145507812 -8.989999771118164 0.014000000432133675 16777471
18.972999572753906 -7.824999809265137 3.053999900817871 16777471
15.930000305175781 -9.793999671936035 3.0309998989105225 16777471
21.964000701904297 -7.35099983215332 2.4140000343322754 16777471
21.04599952697754 -7.34499979019165 0.5210000276565552 16777471
21.077999114990234 -8.425999641418457 0.01899999938905239 16777471
15.635000228881836 -7.340000152587891 2.9690001010894775 16777471
21.433000564575195 -7.34499979019165 2.0220000743865967 16777471
28.016000747680664 -10.041999816894531 2.5280001163482666 16777471
25.631000518798828 -7.841000080108643 0.006000000052154064 16777471
24.28499984741211 -9.26200008392334 3.0420000553131104 16777471
24.179000854492188 -9.085000038146973 3.0429999828338623 16777471
17.19099998474121 -7.3379998207092285 1.8359999656677246 16777471
21.518999099731445 -9.460000038146973 3.0510001182556152 16777471
27.922000885009766 -7.478000164031982 0.012000000104308128 16777471
24.847999572753906 -7.703999996185303 3.052999973297119 16777471
18.822999954223633 -9.567999839782715 3.0399999618530273 16777471
20.132999420166016 -8.475000381469727 0.02199999988079071 16777471
18.851999282836914 -9.939000129699707 0.7639999985694885 16777471
24.590999603271484 -7.175000190734863 0.010999999940395355 16777471
17.850000381469727 -7.3470001220703125 0.34700000286102295 16777471
17.447999954223633 -7.99399995803833 0.013000000268220901 16777471
28.158000946044922 -8.343000411987305 2.7200000286102295 16777471
16.17099952697754 -7.335000038146973 2.5420000553131104 16777471
24.972999572753906 -7.413000106811523 0.004999999888241291 16777471
17.86199951171875 -8.109000205993652 0.014999999664723873 16777471
19.663000106811523 -8.789999961853027 0.017999999225139618 16777471
17.801000595092773 -9.62399959564209 3.053999900817871 16777471
23.198999404907227 -9.355999946594238 0.012000000104308128 16777471
26.118999481201172 -7.105999946594238 0.010999999940395355 16777471
18.865999221801758 -7.618000030517578 3.049999952316284 16777471
25.41699981689453 -6.991000175476074 0.0430000014603138 16777471
18.03499984741211 -9.800000190734863 2.4149999618530273 16777471
25.73900032043457 -8.432999610900879 2.747999906539917 16777471
28.069000244140625 -9.989999771118164 1.149999976158142 16777471
24.93600082397461 -8.069999694824219 2.759999990463257 16777471
25.958999633789062 -7.785999774932861 3.0510001182556152 16777471
18.301000595092773 -9.800999641418457 2.750999927520752 16777471
18.711000442504883 -7.559999942779541 3.0199999809265137 16777471
15.211999893188477 -8.54699993133545 3.055999994277954 16777471
26.93000030517578 -7.681000232696533 3.0439999103546143 16777471
22.253000259399414 -9.935999870300293 2.992000102996826 16777471
18.690000534057617 -7.3429999351501465 2.924999952316284 16777471
24.76300048828125 -7.349999904632568 3.055999994277954 16777471
23.87299919128418 -7.730999946594238 3.053999900817871 16777471
22.163000106811523 -7.357999801635742 0.1720000058412552 16777471
20.729999542236328 -7.39300012588501 1.5640000104904175 16777471
20.24799919128418 -7.34499979019165 1.38100004196167 16777471
26.44499969482422 -8.081000328063965 0.012000000104308128 16777471
22.222000122070312 -8.133000373840332 2.7750000953674316 16777471
21.466999053955078 -8.234999656677246 2.7249999046325684 16777471
27.66200065612793 -8.675000190734863 0.013000000268220901 16777471
26.829999923706055 -6.984000205993652 0.6980000138282776 16777471
21.268999099731445 -7.486000061035156 0.020999999716877937 16777471
24.756000518798828 -8.35200023651123 2.740999937057495 16777471
26.687000274658203 -6.968999862670898 1.3919999599456787 16777471
15.829999923706055 -7.341000080108643 1.2790000438690186 16777471
18.733999252319336 -9.802000045776367 2.0490000247955322 16777471
22.458999633789062 -7.175000190734863 0.5799999833106995 16777471
19.398000717163086 -9.222999572753906 0.017000000923871994 16777471
20.638999938964844 -7.3460001945495605 2.193000078201294 16777471
24.749000549316406 -10.048999786376953 2.13700008392334 16777471
20.93400001525879 -9.447999954223633 0.024000000208616257 16777471
27.275999069213867 -10.015000343322754 0.0820000022649765 16777471
26.83099937438965 -8.835000038146973 3.0439999103546143 16777471
18.770000457763672 -9.192999839782715 3.0269999504089355 16777471
15.973999977111816 -8.149999618530273 3.0450000762939453 16777471
15.765999794006348 -7.336999893188477 2.447999954223633 16777471
18.43600082397461 -9.802000045776367 2.0260000228881836 16777471
19.666000366210938 -9.942999839782715 0.023000000044703484 16777471
22.863000869750977 -9.642999649047852 3.046999931335449 16777471
20.34600067138672 -10.04699993133545 1.621000051498413 16777471
19.871000289916992 -7.419000148773193 1.5750000476837158 16777471
26.83300018310547 -9.819999694824219 3.066999912261963 16777471
14.932999610900879 -9.539999961853027 0.010999999940395355 16777471
17.160999298095703 -9.795999526977539 2.0460000038146973 16777471
22.718000411987305 -8.111000061035156 0.02500000037252903 16777471
25.825000762939453 -7.199999809265137 3.059000015258789 16777471
25.025999069213867 -9.888999938964844 0.014999999664723873 16777471
27.71299934387207 -9.993000030517578 0.05999999865889549 16777471
18.913999557495117 -7.3470001220703125 0.7860000133514404 16777471
20.760000228881836 -8.359000205993652 2.7279999256134033 16777471
17.466999053955078 -8.288000106811523 2.7019999027252197 16777471
17.61199951171875 -9.196000099182129 0.014000000432133675 16777471
21.892000198364258 -9.809000015258789 0.5799999833106995 16777471
18.474000930786133 -9.79699993133545 1.593000054359436 16777471
19.785999298095703 -7.34499979019165 2.566999912261963 16777471
23.104999542236328 -7.447000026702881 3.056999921798706 16777471
21.618999481201172 -7.3460001945495605 1.7769999504089355 16777471
14.883999824523926 -9.831999778747559 2.0309998989105225 16777471
27.302000045776367 -9.097000122070312 0.012000000104308128 16777471
17.038000106811523 -7.335999965667725 2.884000062942505 16777471
21.881000518798828 -9.732000350952148 3.0480000972747803 16777471
25.945999145507812 -8.430999755859375 2.7339999675750732 16777471
19.93000030517578 -7.968999862670898 3.053999900817871 16777471
22.90999984741211 -7.211999893188477 0.024000000208616257 16777471
21.468000411987305 -7.35699987411499 0.052000001072883606 16777471
17.027999877929688 -9.793999671936035 1.4859999418258667 16777471
17.35700035095215 -9.305000305175781 0.014000000432133675 16777471
19.30699920654297 -9.413999557495117 0.017000000923871994 16777471
27.174999237060547 -9.21399974822998 3.0409998893737793 16777471
19.639999389648438 -7.400000095367432 3.052999973297119 16777471
27.579999923706055 -8.104000091552734 2.740999937057495 16777471
27.926000595092773 -8.878999710083008 0.014000000432133675 16777471
23.700000762939453 -9.62600040435791 3.0460000038146973 16777471
19.60300064086914 -7.367000102996826 3.0369999408721924 16777471
18.17300033569336 -8.718000411987305 3.0490000247955322 16777471
24.635000228881836 -9.072999954223633 3.0420000553131104 16777471
17.402999877929688 -7.964000225067139 0.013000000268220901 16777471
23.288000106811523 -8.13599967956543 0.013000000268220901 16777471
21.64900016784668 -10.003999710083008 1.5160000324249268 16777471
25.99799919128418 -8.713000297546387 3.0409998893737793 16777471
20.57200050354004 -9.414999961853027 0.023000000044703484 16777471
24.500999450683594 -9.220000267028809 3.0409998893737793 16777471
18.062999725341797 -8.204999923706055 0.017000000923871994 16777471
16.22599983215332 -8.402000427246094 2.7249999046325684 16777471
25.02899932861328 -8.550999641418457 0.006000000052154064 16777471
23.433000564575195 -6.989999771118164 0.8410000205039978 16777471
20.566999435424805 -9.743000030517578 0.02199999988079071 16777471
15.909000396728516 -7.755000114440918 3.062999963760376 16777471
17.87700080871582 -7.894000053405762 3.053999900817871 16777471
18.12700080871582 -9.494999885559082 0.017000000923871994 16777471
24.263999938964844 -9.890000343322754 0.017999999225139618 16777471
18.726999282836914 -8.277999877929688 2.687999963760376 16777471
26.733999252319336 -8.89799976348877 0.010999999940395355 16777471
21.73200035095215 -7.3480000495910645 0.9789999723434448 16777471
22.687999725341797 -7.242000102996826 3.061000108718872 16777471
18.356000900268555 -9.791000366210938 0.4390000104904175 16777471
20.464000701904297 -10.043999671936035 0.6050000190734863 16777471
15.314000129699707 -7.339000225067139 2.0840001106262207 16777471
16.4060001373291 -8.199000358581543 0.009999999776482582 16777471
15.541999816894531 -9.791000366210938 2.1630001068115234 16777471
22.49799919128418 -6.988999843597412 1.8350000381469727 16777471
23.996000289916992 -9.847000122070312 0.01600000075995922 16777471
22.735000610351562 -8.682999610900879 0.026000000536441803 16777471
16.368000030517578 -7.340000152587891 1.1510000228881836 16777471
26.18199920654297 -10.012999534606934 1.7239999771118164 16777471
19.740999221801758 -7.3470001220703125 0.4959999918937683 16777471
24.242000579833984 -9.305999755859375 3.0420000553131104 16777471
19.465999603271484 -8.710000038146973 0.017000000923871994 16777471
23.40399932861328 -9.555999755859375 0.013000000268220901 16777471
15.0649995803833 -9.4399995803833 0.010999999940395355 16777471
24.66200065612793 -8.470000267028809 0.004999999888241291 16777471
21.24799919128418 -7.650000095367432 0.020999999716877937 16777471
23.089000701904297 -9.536999702453613 3.0460000038146973 16777471
22.457000732421875 -7.230000019073486 2.38100004196167 16777471
22.268999099731445 -9.973999977111816 2.5429999828338623 16777471
22.961000442504883 -9.83899974822998 3.0840001106262207 16777471
27.827999114990234 -9.604000091552734 0.010999999940395355 16777471
18.44300079345703 -7.493000030517578 0.01600000075995922 16777471
25.393999099731445 -9.619999885559082 3.0339999198913574 16777471
17.076000213623047 -7.6519999504089355 0.010999999940395355 16777471
22.649999618530273 -8.53499984741211 0.02800000086426735 16777471
20.783000946044922 -7.3470001220703125 2.069999933242798 16777471
17.43400001525879 -8.79800033569336 3.053999900817871 16777471
21.840999603271484 -8.204000473022461 0.024000000208616257 16777471
20.715999603271484 -7.486999988555908 0.02199999988079071 16777471
20.50200080871582 -7.343999862670898 0.6589999794960022 16777471
27.815000534057617 -8.119000434875488 2.739000082015991 16777471
19.302000045776367 -8.869999885559082 3.061000108718872 16777471
25.489999771118164 -8.057000160217285 0.004999999888241291 16777471
15.461999893188477 -8.336000442504883 0.010999999940395355 16777471
18.641000747680664 -8.463000297546387 0.01600000075995922 16777471
21.076000213623047 -7.677000045776367 0.020999999716877937 16777471
25.99799919128418 -8.060999870300293 0.009999999776482582 16777471
14.770000457763672 -8.907999992370605 0.009999999776482582 16777471
24.08799934387207 -10.069000244140625 1.5230000019073486 16777471
20.666000366210938 -8.163999557495117 0.023000000044703484 16777471
19.822999954223633 -7.3429999351501465 0.7049999833106995 16777471
19.76099967956543 -7.348999977111816 0.39800000190734863 16777471
25.739999771118164 -9.227999687194824 3.0360000133514404 16777471
22.01799964904785 -9.807000160217285 1.8270000219345093 16777471
15.135000228881836 -7.340000152587891 1.7039999961853027 16777471
19.64299964904785 -8.5600004196167 3.058000087738037 16777471
21.145999908447266 -9.178999900817871 0.024000000208616257 16777471
16.663999557495117 -7.335000038146973 2.6570000648498535 16777471
21.572999954223633 -7.3480000495910645 0.7139999866485596 16777471
26.819000244140625 -10.008000373840332 1.593000054359436 16777471
15.571000099182129 -9.36299991607666 3.052999973297119 16777471
23.5 -9.567000389099121 3.0460000038146973 16777471
14.907999992370605 -9.793000221252441 2.825000047683716 16777471
15.347000122070312 -8.482000350952148 3.056999921798706 16777471
25.867000579833984 -7.658999919891357 0.008999999612569809 16777471
16.496999740600586 -8.715999603271484 3.055999994277954 16777471
17.3700008392334 -9.795000076293945 1.7139999866485596 16777471
21.427000045776367 -7.9770002365112305 3.049999952316284 16777471
24.253999710083008 -7.553999900817871 3.056999921798706 16777471
22.797000885009766 -7.21999979019165 3.061000108718872 16777471
27.884000778198242 -10.031999588012695 0.08900000154972076 16777471
14.864999771118164 -7.361999988555908 0.014999999664723873 16777471
18.1299991607666 -9.0649995803833 3.055999994277954 16777471
26.336000442504883 -6.980000019073486 0.07500000298023224 16777471
26.60099983215332 -9.96399974822998 0.008999999612569809 16777471
24.444000244140625 -8.309000015258789 0.004999999888241291 16777471
22.95199966430664 -7.432000160217285 0.020999999716877937 16777471
21.929000854492188 -9.810999870300293 1.527999997138977 16777471
22.45599937438965 -7.046999931335449 2.572999954223633 16777471
19.81399917602539 -7.427000045776367 0.020999999716877937 16777471
21.89900016784668 -9.206999778747559 3.052000045776367 16777471
22.856000900268555 -8.586000442504883 0.02199999988079071 16777471
23.509000778198242 -9.732000350952148 0.01600000075995922 16777471
18.249000549316406 -9.786999702453613 0.2930000126361847 16777471
23.761999130249023 -6.888000011444092 0.09600000083446503 16777471
21.766000747680664 -7.703000068664551 3.052000045776367 16777471
20.860000610351562 -8.46399974822998 2.749000072479248 16777471
16.93000030517578 -9.781000137329102 0.11599999666213989 16777471
22.209999084472656 -9.866999626159668 0.19300000369548798 16777471
24.898000717163086 -9.097000122070312 0.007000000216066837 16777471
18.100000381469727 -9.630999565124512 3.053999900817871 16777471
26.673999786376953 -6.901000022888184 0.11500000208616257 16777471
16.12299919128418 -8.1850004196167 3.0439999103546143 16777471
17.801000595092773 -9.795000076293945 1.1050000190734863 16777471
14.708999633789062 -9.336000442504883 0.009999999776482582 16777471
20.312999725341797 -8.274999618530273 2.687999963760376 16777471
26.694000244140625 -6.9710001945495605 1.2289999723434448 16777471
19.86400032043457 -7.343999862670898 1.00600004196167 16777471
25.224000930786133 -7.35099983215332 0.007000000216066837 16777471
20.742000579833984 -8.83899974822998 3.052999973297119 16777471
17.481000900268555 -9.795000076293945 1.6790000200271606 16777471
20.243000030517578 -7.34499979019165 2.128999948501587 16777471
20.19499969482422 -7.449999809265137 1.6990000009536743 16777471
26.517000198364258 -8.206999778747559 2.736999988555908 16777471
25.458999633789062 -8.10200023651123 3.0460000038146973 16777471
21.69099998474121 -7.3470001220703125 1.656999945640564 16777471
18.674999237060547 -9.265999794006348 3.0269999504089355 16777471
16.569000244140625 -9.795999526977539 2.621000051498413 16777471
22.339000701904297 -8.234999656677246 0.027000000700354576 16777471
24.60700035095215 -9.02400016784668 3.0420000553131104 16777471
17.309999465942383 -9.781999588012695 0.1420000046491623 16777471
20.780000686645508 -10.02299976348877 0.09099999815225601 16777471
23.666000366210938 -8.12600040435791 0.00800000037997961 16777471
15.008999824523926 -9.855999946594238 2.119999885559082 16777471
16.21500015258789 -9.793000221252441 2.0739998817443848 16777471
19.27899932861328 -7.343999862670898 0.8899999856948853 16777471
17.740999221801758 -9.791999816894531 0.6039999723434448 16777471
16.086999893188477 -9.793999671936035 2.9649999141693115 16777471
20.260000228881836 -8.043000221252441 2.803999900817871 16777471
15.838000297546387 -9.793000221252441 2.4679999351501465 16777471
24.726999282836914 -10.008999824523926 2.2130000591278076 16777471
14.890000343322754 -8.109999656677246 2.7200000286102295 16777471
16.94099998474121 -7.396999835968018 3.055000066757202 16777471
16.71299934387207 -8.329999923706055 3.055999994277954 16777471
26.64699935913086 -7.005000114440918 0.028999999165534973 16777471
15.284000396728516 -9.01200008392334 3.052999973297119 16777471
22.097000122070312 -9.824000358581543 2.5889999866485596 16777471
25.67099952697754 -7.578999996185303 3.052000045776367 16777471
23.56999969482422 -6.9679999351501465 2.625999927520752 16777471
22.066999435424805 -8.069000244140625 0.02500000037252903 16777471
24.232999801635742 -10.038999557495117 1.5410000085830688 16777471
21.8799991607666 -7.3520002365112305 0.257999986410141 16777471
27.22800064086914 -7.864999771118164 0.010999999940395355 16777471
14.62399959564209 -7.4079999923706055 3.061000108718872 16777471
21.7810001373291 -8.157999992370605 0.024000000208616257 16777471
21.000999450683594 -7.988999843597412 3.0480000972747803 16777471
16.604000091552734 -8.37600040435791 0.012000000104308128 16777471
26.270999908447266 -8.925000190734863 0.00800000037997961 16777471
19.70800018310547 -7.34499979019165 2.4839999675750732 16777471
22.341999053955078 -10.020999908447266 2.0429999828338623 16777471
17.475000381469727 -9.789999961853027 0.5239999890327454 16777471
25.767000198364258 -8.303000450134277 0.00800000037997961 16777471
26.729000091552734 -6.980999946594238 2.513000011444092 16777471
18.280000686645508 -9.78499984741211 0.22300000488758087 16777471
18.836999893188477 -7.507999897003174 3.046999931335449 16777471
23.077999114990234 -10.067999839782715 0.09300000220537186 16777471
18.851999282836914 -9.91100025177002 0.7879999876022339 16777471
23.43899917602539 -9.75 0.01600000075995922 16777471
26.840999603271484 -6.943999767303467 2.131999969482422 16777471
24.781999588012695 -10.053000450134277 2.135999917984009 16777471
26.819000244140625 -7.636000156402588 3.0450000762939453 16777471
24.08799934387207 -10.015999794006348 1.0520000457763672 16777471
15.579000473022461 -8.767999649047852 3.055999994277954 16777471
23.552000045776367 -6.97599983215332 0.5669999718666077 16777471
19.586000442504883 -7.447999954223633 1.8630000352859497 16777471
24.49799919128418 -9.135000228881836 0.007000000216066837 16777471
17.025999069213867 -7.6620001792907715 3.055999994277954 16777471
18.180999755859375 -9.79699993133545 1.5859999656677246 16777471
15.753000259399414 -9.192999839782715 3.052999973297119 16777471
16.374000549316406 -9.645999908447266 0.014000000432133675 16777471
17.53499984741211 -9.793999671936035 1.312000036239624 16777471
24.885000228881836 -8.534000396728516 0.006000000052154064 16777471
24.312000274658203 -8.309000015258789 2.7239999771118164 16777471
18.68600082397461 -9.802000045776367 2.006999969482422 16777471
24.179000854492188 -8.45300006866455 2.7320001125335693 16777471
21.930999755859375 -8.229999542236328 0.024000000208616257 16777471
27.555999755859375 -8.904999732971191 3.0409998893737793 16777471
27.014999389648438 -7.446000099182129 0.012000000104308128 16777471
17.19499969482422 -8.324999809265137 2.7260000705718994 16777471
17.951000213623047 -7.269000053405762 1.1130000352859497 16777471
19.86199951171875 -7.59499979019165 3.052999973297119 16777471
22.281999588012695 -7.531000137329102 3.052999973297119 16777471
22.85300064086914 -8.355999946594238 0.023000000044703484 16777471
24.76099967956543 -8.696999549865723 0.006000000052154064 16777471
20.51799964904785 -7.3429999351501465 1.9129999876022339 16777471
15.769000053405762 -9.803999900817871 0.16500000655651093 16777471
18.320999145507812 -7.6579999923706055 0.01600000075995922 16777471
25.139999389648438 -7.861000061035156 3.049999952316284 16777471
22.46299934387207 -7.053999900817871 0.35600000619888306 16777471
25.459999084472656 -9.454000473022461 3.0339999198913574 16777471
16.069000244140625 -8.29699993133545 2.7200000286102295 16777471
27.04400062561035 -7.632999897003174 0.012000000104308128 16777471
24.999000549316406 -9.138999938964844 0.007000000216066837 16777471
26.176000595092773 -7.315999984741211 0.010999999940395355 16777471
22.128000259399414 -9.170999526977539 3.052999973297119 16777471
17.656999588012695 -8.380000114440918 0.014000000432133675 16777471
20.503999710083008 -7.343999862670898 0.5339999794960022 16777471
20.283000946044922 -9.902999877929688 0.02199999988079071 16777471
19.045000076293945 -7.34499979019165 2.9140000343322754 16777471
17.90999984741211 -9.675999641418457 3.053999900817871 16777471
15.145000457763672 -8.541999816894531 3.055999994277954 16777471
24.191999435424805 -10.003999710083008 2.2899999618530273 16777471
16.38599967956543 -7.335999965667725 2.1619999408721924 16777471
25.948999404907227 -7.26800012588501 0.009999999776482582 16777471
14.914999961853027 -9.255000114440918 3.053999900817871 16777471
20.618999481201172 -7.4670000076293945 0.02199999988079071 16777471
22.29800033569336 -9.373000144958496 0.023000000044703484 16777471
15.303999900817871 -7.754000186920166 0.1379999965429306 16777471
24.805999755859375 -8.708000183105469 3.0439999103546143 16777471
15.847999572753906 -8.079999923706055 3.055000066757202 16777471
15.562000274658203 -8.251999855041504 2.696000099182129 16777471
19.9950008392334 -8.652999877929688 3.053999900817871 16777471
20.079999923706055 -8.180999755859375 0.020999999716877937 16777471
19.43199920654297 -8.107999801635742 3.0490000247955322 16777471
19.243999481201172 -7.3460001945495605 0.3889999985694885 16777471
24.820999145507812 -8.159000396728516 2.742000102996826 16777471
26.07200050354004 -8.54699993133545 3.0460000038146973 16777471
16.22599983215332 -7.425000190734863 0.42500001192092896 16777471
17.695999145507812 -9.79800033569336 3.0320000648498535 16777471
22.238000869750977 -9.920999526977539 2.5899999141693115 16777471
16.06599998474121 -9.789999961853027 1.0679999589920044 16777471
17.9689998626709 -9.465999603271484 3.053999900817871 16777471
20.06399917602539 -9.72700023651123 3.0490000247955322 16777471
16.718000411987305 -9.779000282287598 0.054999999701976776 16777471
21.076000213623047 -8.01200008392334 3.0480000972747803 16777471
17.479999542236328 -9.788999557495117 0.3970000147819519 16777471
19.579999923706055 -7.3460001945495605 0.4480000138282776 16777471
18.902000427246094 -7.822000026702881 0.01899999938905239 16777471
23.363000869750977 -8.607999801635742 0.009999999776482582 16777471
25.301000595092773 -7.544000148773193 0.004000000189989805 16777471
16.083999633789062 -9.758999824523926 0.013000000268220901 16777471
14.656000137329102 -7.364999771118164 1.9830000400543213 16777471
15.418999671936035 -8.984000205993652 0.010999999940395355 16777471
17.39299964904785 -8.027999877929688 0.013000000268220901 16777471
26.665000915527344 -8.727999687194824 0.012000000104308128 16777471
26.86199951171875 -7.020999908447266 0.8799999952316284 16777471
25.613000869750977 -8.121000289916992 2.755000114440918 16777471
27.757999420166016 -9.833999633789062 3.049999952316284 16777471
24.797000885009766 -10.043000221252441 2.140000104904175 16777471
28.10700035095215 -7.4720001220703125 3.0460000038146973 16777471
18.077999114990234 -9.793999671936035 1.0299999713897705 16777471
20.260000228881836 -9.961000442504883 0.878000020980835 16777471
25.924999237060547 -7.494999885559082 3.052999973297119 16777471
26.756000518798828 -9.994999885559082 1.5219999551773071 16777471
20.30900001525879 -7.34499979019165 1.3700000047683716 16777471
14.991000175476074 -8.947999954223633 3.055000066757202 16777471
15.369999885559082 -7.3379998207092285 2.3529999256134033 16777471
19.424999237060547 -9.666999816894531 0.020999999716877937 16777471
25.43199920654297 -6.9070000648498535 0.0989999994635582 16777471
18.304000854492188 -9.734000205993652 0.020999999716877937 16777471
15.388999938964844 -9.793999671936035 2.6689999103546143 16777471
22.753999710083008 -9.718999862670898 0.019999999552965164 16777471
16.285999298095703 -7.961999893188477 3.058000087738037 16777471
17.291000366210938 -9.236000061035156 0.014000000432133675 16777471
27.47100067138672 -8.472000122070312 2.739000082015991 16777471
15.579000473022461 -9.793000221252441 2.7109999656677246 16777471
17.020000457763672 -9.791999816894531 1.0859999656677246 16777471
20.93899917602539 -9.520999908447266 3.0510001182556152 16777471
16.518999099731445 -7.3420000076293945 0.7850000262260437 16777471
26.326000213623047 -8.670000076293945 3.0460000038146973 16777471
22.645000457763672 -7.150000095367432 0.028999999165534973 16777471
23.570999145507812 -8.246000289916992 2.7149999141693115 16777471
22.468000411987305 -7.3420000076293945 2.484999895095825 16777471
26.7189998626709 -6.965000152587891 0.5339999794960022 16777471
22.231000900268555 -9.895000457763672 0.12399999797344208 16777471
15.439000129699707 -7.3379998207092285 1.8279999494552612 16777471
25.79199981689453 -9.409000396728516 0.00800000037997961 16777471
18.354000091552734 -9.416999816894531 3.0260000228881836 16777471
16.006999969482422 -7.341000080108643 1.2419999837875366 16777471
24.086000442504883 -8.590999603271484 3.046999931335449 16777471
20.631999969482422 -7.348999977111816 2.993000030517578 16777471
22.639999389648438 -8.097999572753906 0.026000000536441803 16777471
23.83300018310547 -7.5269999504089355 3.058000087738037 16777471
21.426000595092773 -7.349999904632568 2.7090001106262207 16777471
21.364999771118164 -7.855000019073486 3.0510001182556152 16777471
18.89900016784668 -7.34499979019165 0.052000001072883606 16777471
16.777000427246094 -7.335000038146973 2.7960000038146973 16777471
17.69099998474121 -7.3420000076293945 2.369999885559082 16777471
23.711000442504883 -10.019000053405762 0.7879999876022339 16777471
28.06599998474121 -9.40999984741211 3.0450000762939453 16777471
15.029999732971191 -9.645999908447266 3.053999900817871 16777471
17.082000732421875 -7.363999843597412 0.9120000004768372 16777471
16.483999252319336 -9.795999526977539 2.7780001163482666 16777471
21.97100067138672 -9.338000297546387 0.026000000536441803 16777471
21.527000427246094 -7.39300012588501 0.02199999988079071 16777471
19.951000213623047 -7.554999828338623 3.053999900817871 16777471
24.354000091552734 -7.323999881744385 3.056999921798706 16777471
17.354000091552734 -7.474999904632568 3.055999994277954 16777471
21.96299934387207 -7.349999904632568 0.6499999761581421 16777471
15.39799976348877 -9.121999740600586 3.052999973297119 16777471
21.70400047302246 -8.206999778747559 0.024000000208616257 16777471
21.30500030517578 -8.463000297546387 0.02199999988079071 16777471
20.868000030517578 -8.557999610900879 3.0490000247955322 16777471
23.26099967956543 -8.392999649047852 0.010999999940395355 16777471
17.27199935913086 -8.74899959564209 0.014999999664723873 16777471
20.09600067138672 -7.885000228881836 0.019999999552965164 16777471
20.641000747680664 -7.841000080108643 3.0510001182556152 16777471
23.229000091552734 -7.361000061035156 0.01600000075995922 16777471
21.107999801635742 -7.34499979019165 0.8809999823570251 16777471
27.134000778198242 -8.694000244140625 3.0439999103546143 16777471
17.56399917602539 -7.770999908447266 0.014000000432133675 16777471
22.347999572753906 -8.494999885559082 2.8320000171661377 16777471
15.42199993133545 -7.751999855041504 3.061000108718872 16777471
21.113000869750977 -7.448999881744385 0.020999999716877937 16777471
24.322999954223633 -10.003999710083008 2.2230000495910645 16777471
26.152000427246094 -9.199000358581543 3.0399999618530273 16777471
18.641000747680664 -7.385000228881836 3.0190000534057617 16777471
19.8439998626709 -9.123000144958496 0.01899999938905239 16777471
16.30699920654297 -9.795000076293945 2.9690001010894775 16777471
25.683000564575195 -7.553999900817871 0.007000000216066837 16777471
24.155000686645508 -7.446000099182129 0.006000000052154064 16777471
24.13599967956543 -9.208000183105469 0.007000000216066837 16777471
21.065000534057617 -7.349999904632568 2.8889999389648438 16777471
25.07900047302246 -6.921000003814697 0.10300000011920929 16777471
15.784000396728516 -9.788999557495117 1.2070000171661377 16777471
19.961000442504883 -7.921999931335449 3.053999900817871 16777471
20.989999771118164 -8.470000267028809 2.740999937057495 16777471
21.04400062561035 -7.855000019073486 3.0480000972747803 16777471
24.799999237060547 -7.232999801635742 3.069000005722046 16777471
18.097000122070312 -9.800000190734863 2.3459999561309814 16777471
22.461999893188477 -7.632999897003174 0.023000000044703484 16777471
23.23900032043457 -9.807999610900879 3.062999963760376 16777471
26.139999389648438 -7.061999797821045 0.012000000104308128 16777471
19.23699951171875 -8.984999656677246 3.059999942779541 16777471
18.07200050354004 -7.427999973297119 0.014000000432133675 16777471
21.541000366210938 -8.838000297546387 0.027000000700354576 16777471
27.562000274658203 -8.145000457763672 3.0460000038146973 16777471
25.823999404907227 -9.184000015258789 3.0360000133514404 16777471
21.645000457763672 -10.012999534606934 2.8889999389648438 16777471
27.600000381469727 -7.63700008392334 3.0450000762939453 16777471
22.45599937438965 -7.01200008392334 2.5759999752044678 16777471
19.395999908447266 -8.880999565124512 0.017000000923871994 16777471
19.260000228881836 -7.3470001220703125 0.3409999907016754 16777471
19.766000747680664 -8.57699966430664 3.055999994277954 16777471
21.264999389648438 -7.525000095367432 3.0490000247955322 16777471
24.045000076293945 -9.956999778747559 0.017999999225139618 16777471
23.179000854492188 -8.069999694824219 0.017000000923871994 16777471
27.215999603271484 -8.609999656677246 3.049999952316284 16777471
26.15999984741211 -9.22700023651123 0.006000000052154064 16777471
27.52899932861328 -8.109999656677246 2.740000009536743 16777471
19.559999465942383 -7.3480000495910645 0.3199999928474426 16777471
24.231000900268555 -10.050999641418457 0.12200000137090683 16777471
17.31599998474121 -7.84499979019165 3.055000066757202 16777471
16.030000686645508 -9.781000137329102 0.26100000739097595 16777471
20.493000030517578 -8.784000396728516 3.053999900817871 16777471
22.367000579833984 -7.353000164031982 2.5290000438690186 16777471
17.527000427246094 -9.503999710083008 0.017000000923871994 16777471
16.05900001525879 -9.791999816894531 2.2190001010894775 16777471
20.18600082397461 -9.357000350952148 0.019999999552965164 16777471
20.451000213623047 -7.986999988555908 3.052000045776367 16777471
21.368000030517578 -8.791000366210938 3.052999973297119 16777471
17.530000686645508 -8.331999778747559 0.014000000432133675 16777471
20.665000915527344 -8.61299991607666 0.023000000044703484 16777471
21.531999588012695 -7.580999851226807 3.049999952316284 16777471
16.22800064086914 -7.379000186920166 0.39399999380111694 16777471
22.198999404907227 -9.869000434875488 2.2720000743865967 16777471
15.045000076293945 -7.3979997634887695 3.056999921798706 16777471
25.2549991607666 -8.928000450134277 3.0399999618530273 16777471
19.054000854492188 -7.343999862670898 2.757999897003174 16777471
21.33799934387207 -7.349999904632568 1.9500000476837158 16777471
15.755000114440918 -7.339000225067139 2.986999988555908 16777471
21.983999252319336 -7.355000019073486 0.18000000715255737 16777471
17.56399917602539 -7.466000080108643 3.055999994277954 16777471
25.209999084472656 -9.5600004196167 0.008999999612569809 16777471
25.27400016784668 -6.942999839782715 2.234999895095825 16777471
17.479999542236328 -7.3429999351501465 1.4459999799728394 16777471
24.382999420166016 -8.4399995803833 0.006000000052154064 16777471
20.91200065612793 -8.559000015258789 3.0490000247955322 16777471
19.738000869750977 -9.012999534606934 0.017999999225139618 16777471
18.441999435424805 -9.531000137329102 0.01899999938905239 16777471
24.06100082397461 -9.982999801635742 0.777999997138977 16777471
26.513999938964844 -7.940000057220459 0.013000000268220901 16777471
22.736000061035156 -9.86400032043457 0.02199999988079071 16777471
25.121000289916992 -9.567000389099121 0.008999999612569809 16777471
20.304000854492188 -7.3460001945495605 1.409000039100647 16777471
20.8799991607666 -9.32699966430664 0.024000000208616257 16777471
21.854999542236328 -8.791999816894531 3.052999973297119 16777471
18.238000869750977 -9.795000076293945 1.0199999809265137 16777471
22.22599983215332 -7.3520002365112305 1.7630000114440918 16777471
17.569000244140625 -8.420000076293945 3.052999973297119 16777471
24.85300064086914 -8.0600004196167 2.7699999809265137 16777471
19.6299991607666 -9.345999717712402 3.053999900817871 16777471
24.003000259399414 -8.57800006866455 3.046999931335449 16777471
24.025999069213867 -9.326000213623047 3.0429999828338623 16777471
21.18899917602539 -8.373000144958496 2.7119998931884766 16777471
16.18400001525879 -8.930000305175781 0.012000000104308128 16777471
26.91699981689453 -8.42300033569336 0.013000000268220901 16777471
15.737000465393066 -9.836999893188477 1.7259999513626099 16777471
17.791000366210938 -9.800000190734863 2.934999942779541 16777471
22.344999313354492 -7.353000164031982 2.5999999046325684 16777471
18.240999221801758 -7.552999973297119 0.014999999664723873 16777471
24.364999771118164 -7.211999893188477 3.049999952316284 16777471
23.753999710083008 -6.943999767303467 0.8339999914169312 16777471
15.175999641418457 -7.3420000076293945 1.2020000219345093 16777471
16.81800079345703 -9.14799976348877 3.053999900817871 16777471
22.208999633789062 -9.871000289916992 1.4600000381469727 16777471
21.941999435424805 -8.211000442504883 0.024000000208616257 16777471
16.961999893188477 -8.940999984741211 0.014000000432133675 16777471
23.39699935913086 -7.817999839782715 0.01600000075995922 16777471
22.913999557495117 -7.97599983215332 0.023000000044703484 16777471
19.246000289916992 -9.609000205993652 3.053999900817871 16777471
19.53499984741211 -9.104999542236328 3.056999921798706 16777471
18.83099937438965 -9.949000358581543 1.8969999551773071 16777471
26.32900047302246 -8.145000457763672 2.746999979019165 16777471
15.970999717712402 -9.711999893188477 0.012000000104308128 16777471
20.375 -7.34499979019165 2.5360000133514404 16777471
23.945999145507812 -7.224999904632568 0.00800000037997961 16777471
21.680999755859375 -9.972999572753906 0.7390000224113464 16777471
24.5310001373291 -8.795999526977539 0.006000000052154064 16777471
22.0 -9.125 0.026000000536441803 16777471
22.476999282836914 -8.022000312805176 0.026000000536441803 16777471
28.06599998474121 -7.991000175476074 3.0490000247955322 16777471
26.691999435424805 -6.965000152587891 2.740000009536743 16777471
17.66699981689453 -8.767000198364258 0.014999999664723873 16777471
22.350000381469727 -7.353000164031982 2.3980000019073486 16777471
16.18000030517578 -7.335000038146973 2.5280001163482666 16777471
26.29599952697754 -10.020999908447266 2.4660000801086426 16777471
24.898000717163086 -8.687000274658203 0.006000000052154064 16777471
19.94499969482422 -7.769000053405762 0.019999999552965164 16777471
26.270999908447266 -8.944999694824219 0.00800000037997961 16777471
25.965999603271484 -9.857000350952148 0.006000000052154064 16777471
23.21500015258789 -7.290999889373779 0.017000000923871994 16777471
19.85700035095215 -7.353000164031982 0.07699999958276749 16777471
14.708999633789062 -7.945000171661377 3.063999891281128 16777471
17.054000854492188 -9.795000076293945 1.8650000095367432 16777471
19.233999252319336 -9.701000213623047 0.019999999552965164 16777471
24.047000885009766 -7.017000198364258 0.878000020980835 16777471
15.201000213623047 -8.475000381469727 3.055999994277954 16777471
26.22100067138672 -7.203000068664551 3.058000087738037 16777471
18.166000366210938 -9.800000190734863 2.315000057220459 16777471
18.308000564575195 -9.159000396728516 3.0290000438690186 16777471
17.113000869750977 -9.791999816894531 0.703000009059906 16777471
18.6560001373291 -7.584000110626221 3.0220000743865967 16777471
21.87299919128418 -7.3480000495910645 1.0740000009536743 16777471
23.166000366210938 -8.807000160217285 0.014000000432133675 16777471
17.195999145507812 -7.3379998207092285 3.052999973297119 16777471
27.893999099731445 -8.069000244140625 2.755000114440918 16777471
15.081000328063965 -7.3420000076293945 1.2910000085830688 16777471
16.457000732421875 -8.838000297546387 3.055999994277954 16777471
18.871999740600586 -10.001999855041504 0.574999988079071 16777471
18.555999755859375 -9.753999710083008 0.023000000044703484 16777471
18.81999969482422 -7.285999774932861 0.5350000262260437 16777471
21.360000610351562 -7.374000072479248 0.03400000184774399 16777471
24.68199920654297 -9.454000473022461 3.0420000553131104 16777471
22.197999954223633 -9.869000434875488 2.2780001163482666 16777471
21.08300018310547 -7.3460001945495605 0.32600000500679016 16777471
24.902000427246094 -10.015999794006348 2.1500000953674316 16777471
25.274999618530273 -6.919000148773193 0.5040000081062317 16777471
26.77400016784668 -6.994999885559082 0.9480000138282776 16777471
14.824999809265137 -9.795000076293945 1.6749999523162842 16777471
27.118999481201172 -9.972999572753906 0.024000000208616257 16777471
