# .PCD v0.7 - Point Cloud Data file format
VERSION 0.7
FIELDS x y z rgb
SIZE 4 4 4 4
TYPE F F F U
COUNT 1 1 1 1
WIDTH 728
HEIGHT 1
VIEWPOINT 0 0 0 1 0 0 0
POINTS 728
DATA ascii
23.572999954223633 -6.916999816894531 2.9670000076293945 16777471
16.18600082397461 -9.793999671936035 2.9539999961853027 16777471
19.857999801635742 -9.930999755859375 0.02199999988079071 16777471
17.70199966430664 -8.79800033569336 0.014999999664723873 16777471
24.871999740600586 -9.675000190734863 3.0420000553131104 16777471
20.922000885009766 -9.557999610900879 3.0510001182556152 16777471
18.847000122070312 -9.918000221252441 2.0869998931884766 16777471
21.44499969482422 -7.828000068664551 0.02199999988079071 16777471
27.0310001373291 -9.946000099182129 0.010999999940395355 16777471
19.066999435424805 -9.390999794006348 0.014999999664723873 16777471
28.166000366210938 -8.786999702453613 3.0409998893737793 16777471
18.358999252319336 -9.795999526977539 1.434000015258789 16777471
22.160999298095703 -9.72700023651123 0.023000000044703484 16777471
19.520000457763672 -7.8520002365112305 0.01899999938905239 16777471
23.937999725341797 -8.527999877929688 2.7760000228881836 16777471
16.14699935913086 -7.335000038146973 2.7300000190734863 16777471
22.902000427246094 -9.277999877929688 3.0480000972747803 16777471
25.64299964904785 -7.127999782562256 0.009999999776482582 16777471
18.554000854492188 -8.493000030517578 2.7669999599456787 16777471
16.371999740600586 -9.789999961853027 1.343000054359436 16777471
18.916000366210938 -8.845999717712402 0.01600000075995922 16777471
23.83300018310547 -7.642000198364258 3.055000066757202 16777471
17.02400016784668 -9.793999671936035 1.6160000562667847 16777471
21.084999084472656 -8.59000015258789 0.019999999552965164 16777471
27.575000762939453 -9.96399974822998 0.012000000104308128 16777471
16.96500015258789 -8.314000129699707 3.0510001182556152 16777471
23.579999923706055 -8.732999801635742 3.0460000038146973 16777471
19.660999298095703 -8.295000076293945 0.01899999938905239 16777471
21.517000198364258 -9.970000267028809 0.026000000536441803 16777471
17.60099983215332 -7.8470001220703125 3.055000066757202 16777471
14.663999557495117 -7.35099983215332 1.684999942779541 16777471
26.003999710083008 -7.591000080108643 0.009999999776482582 16777471
25.490999221801758 -9.532999992370605 3.0269999504089355 16777471
20.11199951171875 -7.354000091552734 0.0689999982714653 16777471
25.322999954223633 -8.048999786376953 2.7720000743865967 16777471
18.93199920654297 -7.3470001220703125 1.215999960899353 16777471
21.292999267578125 -8.442999839782715 0.020999999716877937 16777471
14.868000030517578 -7.339000225067139 2.2260000705718994 16777471
20.988000869750977 -7.348999977111816 2.7130000591278076 16777471
21.14699935913086 -7.864999771118164 0.020999999716877937 16777471
17.173999786376953 -7.35099983215332 1.2359999418258667 16777471
15.770000457763672 -7.751999855041504 0.3869999945163727 16777471
24.719999313354492 -7.315000057220459 3.053999900817871 16777471
18.82699966430664 -9.996000289916992 2.875 16777471
17.284000396728516 -7.3379998207092285 1.9839999675750732 16777471
15.689000129699707 -9.40999984741211 0.012000000104308128 16777471
23.36199951171875 -8.375 0.00800000037997961 16777471
21.93000030517578 -9.8149995803833 0.0430000014603138 16777471
14.539999961853027 -9.460000038146973 3.052999973297119 16777471
18.989999771118164 -8.392999649047852 0.017000000923871994 16777471
16.246000289916992 -7.671999931335449 0.3100000023841858 16777471
19.274999618530273 -8.194000244140625 2.747999906539917 16777471
21.409000396728516 -7.3460001945495605 1.0989999771118164 16777471
16.614999771118164 -9.34000015258789 0.014000000432133675 16777471
21.679000854492188 -10.003000259399414 3.002000093460083 16777471
18.535999298095703 -9.800999641418457 1.8869999647140503 16777471
21.097999572753906 -7.951000213623047 0.02199999988079071 16777471
20.08799934387207 -7.348999977111816 0.24699999392032623 16777471
19.725000381469727 -7.840000152587891 3.053999900817871 16777471
25.32699966430664 -7.517000198364258 0.004000000189989805 16777471
19.90399932861328 -8.482999801635742 2.747999906539917 16777471
27.312999725341797 -7.968999862670898 3.0450000762939453 16777471
18.888999938964844 -9.906999588012695 0.029999999329447746 16777471
23.041000366210938 -8.795999526977539 0.017000000923871994 16777471
16.621999740600586 -9.545000076293945 0.014999999664723873 16777471
15.446000099182129 -7.985000133514404 2.7799999713897705 16777471
20.625999450683594 -7.34499979019165 2.3389999866485596 16777471
16.725000381469727 -9.793999671936035 1.7660000324249268 16777471
25.128999710083008 -6.946000099182129 2.319000005722046 16777471
21.347999572753906 -9.654000282287598 0.02500000037252903 16777471
15.388999938964844 -8.178000450134277 3.0510001182556152 16777471
15.75 -7.341000080108643 1.2079999446868896 16777471
27.868999481201172 -7.618000030517578 3.0490000247955322 16777471
26.158000946044922 -7.122000217437744 0.010999999940395355 16777471
22.250999450683594 -9.91100025177002 1.8830000162124634 16777471
23.68000030517578 -6.926000118255615 1.5520000457763672 16777471
25.742000579833984 -9.17199993133545 0.00800000037997961 16777471
18.597999572753906 -9.031999588012695 0.014999999664723873 16777471
26.542999267578125 -7.678999900817871 3.0480000972747803 16777471
16.913000106811523 -9.793999671936035 1.628999948501587 16777471
17.204999923706055 -7.336999893188477 2.565000057220459 16777471
22.45800018310547 -7.140999794006348 2.6489999294281006 16777471
15.59000015258789 -9.817999839782715 2.130000114440918 16777471
27.988000869750977 -8.23900032043457 3.0450000762939453 16777471
21.81399917602539 -8.192000389099121 2.757999897003174 16777471
26.985000610351562 -10.012999534606934 0.08399999886751175 16777471
18.163999557495117 -8.383000373840332 2.746000051498413 16777471
20.716999053955078 -7.34499979019165 0.48100000619888306 16777471
18.576000213623047 -7.538000106811523 3.0220000743865967 16777471
18.486000061035156 -9.800999641418457 2.561000108718872 16777471
15.845000267028809 -7.750999927520752 0.5180000066757202 16777471
17.836000442504883 -9.460000038146973 0.01600000075995922 16777471
14.652999877929688 -8.32800006866455 3.056999921798706 16777471
15.875 -7.335999965667725 2.5450000762939453 16777471
16.224000930786133 -7.4019999504089355 0.7269999980926514 16777471
26.836999893188477 -6.946000099182129 2.6549999713897705 16777471
20.891000747680664 -9.468000411987305 0.024000000208616257 16777471
21.697999954223633 -7.3480000495910645 2.263000011444092 16777471
14.645000457763672 -8.295999526977539 0.00800000037997961 16777471
17.371000289916992 -8.015999794006348 3.052999973297119 16777471
19.7189998626709 -7.349999904632568 0.23999999463558197 16777471
21.68000030517578 -9.996999740600586 2.2899999618530273 16777471
19.327999114990234 -7.5320000648498535 3.055000066757202 16777471
20.854999542236328 -7.739999771118164 0.020999999716877937 16777471
15.04699993133545 -9.607000350952148 0.010999999940395355 16777471
18.2810001373291 -8.800999641418457 3.0299999713897705 16777471
18.386999130249023 -9.404999732971191 0.017000000923871994 16777471
26.474000930786133 -9.406000137329102 0.006000000052154064 16777471
25.634000778198242 -8.62399959564209 3.0409998893737793 16777471
27.375 -7.631999969482422 0.012000000104308128 16777471
15.592000007629395 -8.904999732971191 3.053999900817871 16777471
17.924999237060547 -9.72700023651123 0.02199999988079071 16777471
15.152000427246094 -9.076000213623047 0.010999999940395355 16777471
25.81599998474121 -7.769999980926514 0.008999999612569809 16777471
15.189000129699707 -8.684000015258789 0.009999999776482582 16777471
23.417999267578125 -8.173999786376953 2.74399995803833 16777471
25.065000534057617 -8.133000373840332 2.746000051498413 16777471
14.6899995803833 -7.3429999351501465 0.44999998807907104 16777471
20.242000579833984 -8.767000198364258 0.023000000044703484 16777471
23.68899917602539 -6.958000183105469 1.5069999694824219 16777471
21.881999969482422 -9.809000015258789 0.3779999911785126 16777471
18.513999938964844 -9.677000045776367 0.019999999552965164 16777471
28.099000930786133 -7.360000133514404 0.013000000268220901 16777471
15.810999870300293 -7.75 0.6589999794960022 16777471
17.216999053955078 -7.34499979019165 0.39800000190734863 16777471
14.62600040435791 -7.3979997634887695 3.061000108718872 16777471
26.114999771118164 -8.98799991607666 0.007000000216066837 16777471
16.582000732421875 -8.454000473022461 0.012000000104308128 16777471
14.706000328063965 -9.788999557495117 0.9070000052452087 16777471
16.198999404907227 -8.005000114440918 3.058000087738037 16777471
22.791000366210938 -9.548999786376953 3.0480000972747803 16777471
17.847000122070312 -8.506999969482422 3.052999973297119 16777471
21.437000274658203 -7.348999977111816 0.27000001072883606 16777471
17.760000228881836 -8.569999694824219 0.014999999664723873 16777471
26.197999954223633 -10.043999671936035 2.763000011444092 16777471
17.924999237060547 -8.437000274658203 3.055000066757202 16777471
22.20800018310547 -9.873000144958496 2.2230000495910645 16777471
16.825000762939453 -9.795000076293945 2.1029999256134033 16777471
14.996000289916992 -7.876999855041504 3.062000036239624 16777471
23.677000045776367 -10.024999618530273 1.343000054359436 16777471
17.207000732421875 -9.78499984741211 0.20499999821186066 16777471
17.62299919128418 -8.305999755859375 3.0450000762939453 16777471
19.621000289916992 -8.45300006866455 0.017999999225139618 16777471
16.023000717163086 -9.315999984741211 3.055000066757202 16777471
14.866999626159668 -9.836999893188477 0.12600000202655792 16777471
25.072999954223633 -8.788000106811523 0.007000000216066837 16777471
20.32200050354004 -7.434000015258789 1.590000033378601 16777471
25.195999145507812 -7.511000156402588 3.052999973297119 16777471
22.3700008392334 -10.03600025177002 2.3289999961853027 16777471
18.600000381469727 -9.800999641418457 1.9199999570846558 16777471
17.24799919128418 -9.166000366210938 0.014000000432133675 16777471
21.982999801635742 -7.3520002365112305 2.747999906539917 16777471
23.327999114990234 -7.48199987411499 3.055999994277954 16777471
14.579999923706055 -7.334000110626221 0.3479999899864197 16777471
18.655000686645508 -8.711999893188477 3.0299999713897705 16777471
20.73699951171875 -9.121000289916992 0.023000000044703484 16777471
16.43400001525879 -7.484000205993652 0.009999999776482582 16777471
19.114999771118164 -9.303999900817871 0.014999999664723873 16777471
21.91200065612793 -8.8149995803833 0.026000000536441803 16777471
16.540000915527344 -9.791999816894531 1.2380000352859497 16777471
16.479999542236328 -9.791000366210938 0.9319999814033508 16777471
24.42099952697754 -7.706999778747559 3.055000066757202 16777471
19.083999633789062 -7.3429999351501465 2.572000026702881 16777471
23.39900016784668 -9.675999641418457 0.014999999664723873 16777471
18.44300079345703 -8.5 3.0309998989105225 16777471
16.316999435424805 -9.795000076293945 2.6010000705718994 16777471
23.43000030517578 -9.979999542236328 0.039000000804662704 16777471
17.06100082397461 -9.795999526977539 2.819999933242798 16777471
23.895000457763672 -9.97700023651123 0.019999999552965164 16777471
24.851999282836914 -9.347999572753906 3.0409998893737793 16777471
17.893999099731445 -7.348999977111816 0.7540000081062317 16777471
15.098999977111816 -9.187000274658203 0.009999999776482582 16777471
17.131000518798828 -9.581999778747559 0.017000000923871994 16777471
27.224000930786133 -8.470999717712402 2.7339999675750732 16777471
27.601999282836914 -8.072999954223633 2.7850000858306885 16777471
16.22100067138672 -9.793999671936035 2.752000093460083 16777471
19.090999603271484 -8.491000175476074 0.017000000923871994 16777471
22.399999618530273 -7.353000164031982 2.1540000438690186 16777471
24.259000778198242 -7.508999824523926 0.006000000052154064 16777471
24.517000198364258 -7.894999980926514 3.052999973297119 16777471
15.956000328063965 -8.32800006866455 0.010999999940395355 16777471
18.856000900268555 -9.852999687194824 0.7549999952316284 16777471
20.097000122070312 -8.17199993133545 0.020999999716877937 16777471
23.382999420166016 -8.140000343322754 2.75 16777471
16.624000549316406 -8.47700023651123 3.055999994277954 16777471
26.367000579833984 -7.511000156402588 0.010999999940395355 16777471
17.68199920654297 -7.343999862670898 0.4339999854564667 16777471
26.844999313354492 -7.919000148773193 0.012000000104308128 16777471
23.690000534057617 -6.966000080108643 2.4700000286102295 16777471
20.863000869750977 -7.3460001945495605 1.0579999685287476 16777471
27.742000579833984 -8.086000442504883 2.819999933242798 16777471
17.566999435424805 -7.3379998207092285 2.746999979019165 16777471
24.698999404907227 -10.008000373840332 2.2750000953674316 16777471
21.476999282836914 -10.008999824523926 0.04500000178813934 16777471
21.457000732421875 -7.35099983215332 2.815000057220459 16777471
26.999000549316406 -6.995999813079834 0.057999998331069946 16777471
26.469999313354492 -9.234000205993652 3.0439999103546143 33488896
24.707000732421875 -8.276000022888184 0.004999999888241291 16777471
17.374000549316406 -7.3379998207092285 2.243000030517578 16777471
16.18600082397461 -9.637999534606934 0.013000000268220901 16777471
24.104000091552734 -9.616000175476074 0.010999999940395355 16777471
17.47599983215332 -7.672999858856201 3.055000066757202 16777471
19.027000427246094 -9.23799991607666 0.014999999664723873 16777471
23.406999588012695 -8.704999923706055 3.0460000038146973 16777471
16.733999252319336 -7.99399995803833 0.010999999940395355 16777471
22.160999298095703 -9.845999717712402 1.0709999799728394 16777471
23.040000915527344 -9.243000030517578 0.017000000923871994 16777471
21.781999588012695 -7.692999839782715 3.052000045776367 16777471
21.819000244140625 -7.3480000495910645 1.7569999694824219 16777471
17.85099983215332 -7.459000110626221 3.055000066757202 16777471
16.575000762939453 -7.85699987411499 0.008999999612569809 16777471
18.816999435424805 -7.577000141143799 3.0369999408721924 16777471
23.22100067138672 -9.45199966430664 0.010999999940395355 16777471
17.30500030517578 -9.793000221252441 1.3270000219345093 16777471
21.799999237060547 -9.862000465393066 3.114000082015991 16777471
17.582000732421875 -7.348999977111816 0.026000000536441803 16777471
15.956000328063965 -9.781999588012695 0.5220000147819519 16777471
18.45199966430664 -9.802000045776367 2.0420000553131104 16777471
26.288999557495117 -8.904000282287598 3.0450000762939453 16777471
23.97800064086914 -9.729000091552734 0.014000000432133675 16777471
24.13800048828125 -9.833000183105469 3.078000068664551 16777471
15.623000144958496 -9.793000221252441 2.5969998836517334 16777471
21.277000427246094 -9.027000427246094 3.052999973297119 16777471
24.280000686645508 -8.095000267028809 2.746999979019165 16777471
22.882999420166016 -9.904000282287598 0.020999999716877937 16777471
16.28700065612793 -7.3429999351501465 0.4659999907016754 16777471
16.565000534057617 -7.341000080108643 1.4550000429153442 16777471
17.545000076293945 -7.870999813079834 0.014000000432133675 16777471
17.461999893188477 -7.955999851226807 0.013000000268220901 16777471
14.869999885559082 -7.765999794006348 3.062999963760376 16777471
22.509000778198242 -6.896999835968018 0.9919999837875366 16777471
21.256999969482422 -7.34499979019165 1.1139999628067017 16777471
24.32900047302246 -8.454000473022461 0.006000000052154064 16777471
26.80299949645996 -6.98199987411499 0.16300000250339508 16777471
15.734999656677246 -7.336999893188477 2.009000062942505 16777471
16.959999084472656 -7.335999965667725 2.1689999103546143 16777471
16.841999053955078 -7.5879998207092285 3.055000066757202 16777471
17.208999633789062 -9.07800006866455 3.053999900817871 16777471
18.02400016784668 -8.609000205993652 0.014999999664723873 16777471
28.124000549316406 -7.491000175476074 0.012000000104308128 16777471
19.860000610351562 -9.98799991607666 0.050999999046325684 16777471
16.399999618530273 -8.22700023651123 2.6610000133514404 16777471
28.006999969482422 -8.64900016784668 3.0409998893737793 16777471
16.297000885009766 -9.788999557495117 1.5199999809265137 16777471
17.492000579833984 -7.3379998207092285 2.819999933242798 16777471
26.707000732421875 -7.613999843597412 0.010999999940395355 16777471
23.80699920654297 -8.78600025177002 3.0450000762939453 16777471
16.709999084472656 -9.795000076293945 2.5179998874664307 16777471
26.429000854492188 -9.418999671936035 3.0429999828338623 16777471
21.3439998626709 -8.07800006866455 2.765000104904175 16777471
23.67799949645996 -6.948999881744385 0.49900001287460327 16777471
18.56599998474121 -9.777999877929688 1.1050000190734863 16777471
18.924999237060547 -8.989999771118164 3.046999931335449 16777471
17.509000778198242 -7.340000152587891 2.078000068664551 16777471
25.43400001525879 -8.314000129699707 2.7249999046325684 16777471
25.323999404907227 -7.218999862670898 3.0460000038146973 16777471
25.31100082397461 -9.649999618530273 0.008999999612569809 16777471
23.30500030517578 -8.279000282287598 0.009999999776482582 16777471
27.767000198364258 -8.322999954223633 2.697000026702881 16777471
25.124000549316406 -6.882999897003174 2.2219998836517334 16777471
22.242000579833984 -9.90999984741211 0.1889999955892563 16777471
18.273000717163086 -9.798999786376953 1.940000057220459 16777471
17.233999252319336 -7.3379998207092285 1.9240000247955322 16777471
14.913000106811523 -9.793999671936035 2.4719998836517334 16777471
14.614999771118164 -7.372000217437744 1.7170000076293945 16777471
25.615999221801758 -7.754000186920166 0.006000000052154064 16777471
27.924999237060547 -8.737000465393066 3.0439999103546143 16777471
20.21500015258789 -7.349999904632568 0.1940000057220459 16777471
25.187999725341797 -7.000999927520752 1.5299999713897705 16777471
27.091999053955078 -7.757999897003174 0.010999999940395355 16777471
28.099000930786133 -9.986000061035156 1.8209999799728394 16777471
16.62299919128418 -7.341000080108643 1.3539999723434448 16777471
17.128000259399414 -7.3480000495910645 0.03500000014901161 16777471
18.523000717163086 -9.795000076293945 1.031999945640564 16777471
15.121000289916992 -8.060999870300293 3.058000087738037 16777471
15.940999984741211 -9.789999961853027 1.3420000076293945 16777471
23.1560001373291 -8.11299991607666 0.017000000923871994 16777471
15.866999626159668 -7.336999893188477 1.7910000085830688 16777471
20.673999786376953 -8.512999534606934 2.815000057220459 16777471
22.636999130249023 -7.410999774932861 0.02500000037252903 16777471
14.609000205993652 -7.368000030517578 1.812000036239624 16777471
17.663000106811523 -7.343999862670898 1.1069999933242798 16777471
17.54599952697754 -9.798999786376953 2.369999885559082 16777471
26.107999801635742 -9.29699993133545 3.0409998893737793 16777471
18.445999145507812 -8.949000358581543 3.0290000438690186 16777471
19.195999145507812 -9.1899995803833 3.059000015258789 16777471
18.768999099731445 -7.625 0.017999999225139618 16777471
16.91900062561035 -9.793999671936035 1.562999963760376 16777471
15.512999534606934 -7.798999786376953 0.009999999776482582 16777471
22.517000198364258 -6.9029998779296875 2.128999948501587 16777471
28.100000381469727 -9.380000114440918 3.0439999103546143 16777471
16.871999740600586 -7.343999862670898 0.25699999928474426 16777471
17.733999252319336 -7.343999862670898 1.5880000591278076 16777471
26.44300079345703 -8.800999641418457 0.008999999612569809 16777471
21.516000747680664 -8.838000297546387 3.053999900817871 16777471
22.409000396728516 -8.182999610900879 0.027000000700354576 16777471
18.277000427246094 -8.517999649047852 3.0309998989105225 16777471
22.83300018310547 -7.841000080108643 0.023000000044703484 16777471
27.35300064086914 -8.737000465393066 3.046999931335449 16777471
14.743000030517578 -7.3379998207092285 2.9189999103546143 16777471
27.83799934387207 -8.73900032043457 3.0450000762939453 16777471
19.613000869750977 -7.453999996185303 1.7070000171661377 16777471
17.84000015258789 -8.715999603271484 0.014999999664723873 16777471
22.466999053955078 -7.090000152587891 1.0210000276565552 16777471
21.256999969482422 -7.705999851226807 0.020999999716877937 16777471
15.878999710083008 -8.159000396728516 2.694000005722046 16777471
14.772000312805176 -7.689000129699707 3.062999963760376 16777471
16.531999588012695 -7.396999835968018 0.012000000104308128 16777471
17.822999954223633 -7.34499979019165 0.0729999989271164 16777471
25.500999450683594 -9.015999794006348 3.0369999408721924 16777471
20.777999877929688 -7.435999870300293 1.6109999418258667 16777471
15.402000427246094 -8.00100040435791 0.009999999776482582 16777471
17.704999923706055 -8.859000205993652 3.056999921798706 16777471
22.042999267578125 -7.35099983215332 2.140000104904175 16777471
24.22800064086914 -10.045999526977539 0.8600000143051147 16777471
22.990999221801758 -7.026000022888184 0.8740000128746033 16777471
23.16200065612793 -7.561999797821045 3.055000066757202 16777471
27.957000732421875 -8.178999900817871 2.73799991607666 16777471
17.349000930786133 -9.793000221252441 1.2430000305175781 16777471
27.672000885009766 -7.178999900817871 0.014000000432133675 16777471
21.85099983215332 -9.821000099182129 2.0260000228881836 16777471
25.364999771118164 -10.029000282287598 0.014000000432133675 16777471
24.08099937438965 -9.57699966430664 3.0439999103546143 16777471
17.305999755859375 -9.791000366210938 0.6629999876022339 16777471
24.020000457763672 -8.555999755859375 0.008999999612569809 16777471
18.82699966430664 -7.3420000076293945 2.632999897003174 16777471
19.974000930786133 -7.751999855041504 0.019999999552965164 16777471
20.836999893188477 -7.443999767303467 3.0480000972747803 16777471
21.100000381469727 -7.3460001945495605 1.399999976158142 16777471
20.35300064086914 -8.291000366210938 2.694000005722046 16777471
27.031999588012695 -9.291999816894531 0.009999999776482582 16777471
20.086999893188477 -9.73900032043457 0.02199999988079071 16777471
26.742000579833984 -7.933000087738037 0.012000000104308128 16777471
20.351999282836914 -10.050999641418457 2.5280001163482666 16777471
22.26799964904785 -7.369999885559082 3.0510001182556152 16777471
17.21299934387207 -9.793000221252441 1.2910000085830688 16777471
17.518999099731445 -7.75 3.055000066757202 16777471
26.301000595092773 -7.747000217437744 3.0510001182556152 16777471
27.268999099731445 -9.5 3.0420000553131104 16777471
22.374000549316406 -9.428999900817871 0.02199999988079071 16777471
25.628000259399414 -7.49399995803833 3.052000045776367 16777471
19.073999404907227 -9.095999717712402 0.01600000075995922 16777471
18.249000549316406 -8.77400016784668 3.0309998989105225 16777471
27.111000061035156 -9.25 0.010999999940395355 16777471
22.48699951171875 -7.307000160217285 2.5280001163482666 16777471
17.7549991607666 -9.795000076293945 1.100000023841858 16777471
20.195999145507812 -9.512999534606934 0.020999999716877937 16777471
17.319000244140625 -7.341000080108643 0.4699999988079071 16777471
26.724000930786133 -8.869999885559082 0.012000000104308128 16777471
21.5939998626709 -8.302000045776367 2.7009999752044678 16777471
23.048999786376953 -8.213000297546387 0.017999999225139618 16777471
14.91100025177002 -7.339000225067139 2.2049999237060547 16777471
22.14299964904785 -8.869999885559082 3.052999973297119 16777471
21.68199920654297 -7.3480000495910645 0.5230000019073486 16777471
26.5939998626709 -8.793999671936035 3.0460000038146973 16777471
27.06399917602539 -8.875 0.013000000268220901 16777471
16.40999984741211 -9.78600025177002 0.35899999737739563 16777471
21.49799919128418 -9.607000350952148 3.0510001182556152 16777471
14.82800006866455 -8.322999954223633 2.7239999771118164 16777471
22.027999877929688 -9.795000076293945 2.558000087738037 16777471
24.2549991607666 -10.01099967956543 2.365999937057495 16777471
18.46299934387207 -7.341000080108643 2.4779999256134033 16777471
26.760000228881836 -6.989999771118164 2.9049999713897705 16777471
26.797000885009766 -6.9770002365112305 2.997999906539917 16777471
19.451000213623047 -7.7220001220703125 3.056999921798706 16777471
27.902000427246094 -7.000999927520752 0.03500000014901161 16777471
18.91900062561035 -7.752999782562256 3.052000045776367 16777471
23.077999114990234 -8.229000091552734 0.017000000923871994 16777471
17.378999710083008 -7.341000080108643 0.4650000035762787 16777471
16.645000457763672 -9.416999816894531 0.014999999664723873 16777471
26.700000762939453 -7.414000034332275 3.0490000247955322 16777471
17.606000900268555 -7.3420000076293945 0.9340000152587891 16777471
16.726999282836914 -9.781999588012695 0.1889999955892563 16777471
25.097000122070312 -7.558000087738037 3.052999973297119 16777471
22.604999542236328 -8.378000259399414 0.028999999165534973 16777471
14.571000099182129 -8.387999534606934 0.008999999612569809 16777471
21.836000442504883 -9.24899959564209 3.0510001182556152 16777471
14.562999725341797 -8.67300033569336 0.009999999776482582 16777471
15.623000144958496 -8.086999893188477 0.010999999940395355 16777471
24.356000900268555 -9.684000015258789 3.0439999103546143 16777471
26.854999542236328 -7.414999961853027 3.0480000972747803 16777471
21.933000564575195 -7.354000091552734 2.943000078201294 16777471
18.45599937438965 -7.3420000076293945 2.434000015258789 16777471
14.986000061035156 -9.793000221252441 2.997999906539917 16777471
18.091999053955078 -9.800999641418457 2.86899995803833 16777471
19.207000732421875 -7.34499979019165 1.781000018119812 16777471
23.382999420166016 -7.289000034332275 0.014000000432133675 16777471
18.636999130249023 -8.11400032043457 2.755000114440918 16777471
28.09000015258789 -8.59000015258789 0.014999999664723873 16777471
25.937000274658203 -9.689000129699707 3.0369999408721924 16777471
25.270000457763672 -6.875999927520752 1.687000036239624 16777471
22.27400016784668 -9.95300006866455 0.6140000224113464 16777471
16.643999099731445 -9.498000144958496 3.055000066757202 16777471
20.354999542236328 -10.00100040435791 1.1660000085830688 16777471
24.725000381469727 -8.513999938964844 2.7909998893737793 16777471
24.11199951171875 -7.961999893188477 0.004999999888241291 16777471
26.857999801635742 -6.880000114440918 1.5069999694824219 16777471
18.320999145507812 -9.793000221252441 0.5149999856948853 16777471
18.834999084472656 -9.88700008392334 2.4560000896453857 16777471
16.767000198364258 -9.468000411987305 3.055000066757202 16777471
18.990999221801758 -7.748000144958496 3.053999900817871 16777471
25.783000946044922 -7.482999801635742 3.052999973297119 16777471
27.774999618530273 -9.607999801635742 0.010999999940395355 16777471
28.179000854492188 -8.819999694824219 0.014999999664723873 16777471
27.259000778198242 -9.307000160217285 0.009999999776482582 16777471
25.283000946044922 -8.494999885559082 2.822000026702881 16777471
22.704999923706055 -8.45300006866455 2.740999937057495 16777471
17.541000366210938 -7.389999866485596 0.013000000268220901 16777471
19.39900016784668 -7.343999862670898 2.2720000743865967 16777471
21.31599998474121 -7.525000095367432 3.0490000247955322 16777471
19.19300079345703 -7.980000019073486 0.017999999225139618 16777471
21.70400047302246 -9.98900032043457 3.1679999828338623 16777471
22.858999252319336 -9.654000282287598 3.046999931335449 16777471
15.269000053405762 -7.4070000648498535 0.7720000147819519 16777471
18.43000030517578 -8.791999816894531 0.014999999664723873 16777471
24.233999252319336 -9.170000076293945 3.0429999828338623 16777471
16.273000717163086 -8.380000114440918 0.009999999776482582 16777471
17.565000534057617 -9.782999992370605 0.1770000010728836 16777471
20.44499969482422 -7.98799991607666 0.02199999988079071 16777471
15.963000297546387 -9.637999534606934 0.012000000104308128 16777471
17.01099967956543 -8.137999534606934 2.7249999046325684 16777471
15.73900032043457 -9.82800006866455 1.2899999618530273 16777471
21.756000518798828 -7.348999977111816 1.4910000562667847 16777471
21.475000381469727 -7.348999977111816 0.3100000023841858 16777471
26.075000762939453 -8.39900016784668 0.009999999776482582 16777471
16.718000411987305 -9.791999816894531 1.5850000381469727 16777471
27.25 -7.814000129699707 3.0429999828338623 16777471
16.347000122070312 -9.795000076293945 2.3299999237060547 16777471
19.424999237060547 -7.3480000495910645 0.28299999237060547 16777471
26.847000122070312 -6.922999858856201 1.031999945640564 16777471
21.632999420166016 -10.005999565124512 1.38100004196167 16777471
16.819000244140625 -9.791000366210938 0.878000020980835 16777471
23.594999313354492 -6.992000102996826 2.260999917984009 16777471
18.025999069213867 -8.510000228881836 0.014000000432133675 16777471
17.827999114990234 -7.343999862670898 0.14399999380111694 16777471
19.860000610351562 -8.392000198364258 0.019999999552965164 16777471
20.39900016784668 -8.015999794006348 3.052000045776367 16777471
17.33099937438965 -8.842000007629395 0.014999999664723873 16777471
27.23699951171875 -9.732000350952148 3.0439999103546143 16777471
20.451000213623047 -9.984999656677246 0.8240000009536743 16777471
26.70800018310547 -8.743000030517578 0.013000000268220901 16777471
17.312000274658203 -9.475000381469727 3.055000066757202 16777471
24.871000289916992 -8.508999824523926 2.799999952316284 16777471
22.93400001525879 -9.98799991607666 0.0560000017285347 16777471
20.41200065612793 -7.918000221252441 3.052999973297119 16777471
26.854000091552734 -6.9079999923706055 0.7649999856948853 16777471
24.132999420166016 -6.997000217437744 0.04699999839067459 16777471
15.614999771118164 -9.164999961853027 3.052999973297119 16777471
19.325000762939453 -7.3460001945495605 3.0190000534057617 16777471
15.336999893188477 -7.568999767303467 0.7689999938011169 16777471
20.325000762939453 -9.944000244140625 0.8640000224113464 16777471
19.606000900268555 -8.656000137329102 3.058000087738037 16777471
20.79199981689453 -8.833000183105469 0.023000000044703484 16777471
26.405000686645508 -6.933000087738037 0.10100000351667404 16777471
17.62299919128418 -8.1899995803833 0.013000000268220901 16777471
22.886999130249023 -8.37399959564209 0.02199999988079071 16777471
17.81100082397461 -9.79800033569336 1.8799999952316284 16777471
27.84000015258789 -8.038000106811523 3.0480000972747803 16777471
22.141000747680664 -9.732000350952148 0.023000000044703484 16777471
16.77899932861328 -7.341000080108643 0.8709999918937683 16777471
24.763999938964844 -9.164999961853027 3.0409998893737793 16777471
22.277999877929688 -7.353000164031982 2.3499999046325684 16777471
21.707000732421875 -7.349999904632568 2.6760001182556152 16777471
18.841999053955078 -9.821999549865723 0.17000000178813934 16777471
27.974000930786133 -9.809000015258789 0.012000000104308128 16777471
20.3700008392334 -9.375 3.055999994277954 16777471
26.02899932861328 -9.805000305175781 3.049999952316284 16777471
16.566999435424805 -7.34499979019165 0.1120000034570694 16777471
19.295000076293945 -8.730999946594238 0.017000000923871994 16777471
26.910999298095703 -7.580999851226807 0.012000000104308128 16777471
22.020999908447266 -7.8460001945495605 0.023000000044703484 16777471
27.222999572753906 -9.01099967956543 3.0380001068115234 16777471
21.239999771118164 -9.64799976348877 3.049999952316284 16777471
22.30900001525879 -9.281999588012695 0.023000000044703484 16777471
25.134000778198242 -6.895999908447266 1.031999945640564 16777471
17.135000228881836 -7.644999980926514 3.055000066757202 16777471
16.12299919128418 -7.339000225067139 1.2960000038146973 16777471
16.108999252319336 -7.3379998207092285 1.562000036239624 16777471
18.090999603271484 -8.496000289916992 0.017999999225139618 16777471
27.02899932861328 -8.25 2.690000057220459 16777471
17.225000381469727 -9.640999794006348 0.01899999938905239 16777471
18.155000686645508 -7.263000011444092 2.118000030517578 16777471
15.913999557495117 -9.779999732971191 0.20499999821186066 16777471
23.959999084472656 -9.505000114440918 3.0450000762939453 16777471
22.420000076293945 -7.35699987411499 1.156000018119812 16777471
19.621000289916992 -8.508999824523926 2.805999994277954 16777471
21.09600067138672 -9.157999992370605 3.052999973297119 16777471
15.722000122070312 -7.820000171661377 0.009999999776482582 16777471
23.326000213623047 -7.039000034332275 0.01899999938905239 16777471
17.322999954223633 -9.625 0.01899999938905239 16777471
15.545000076293945 -8.449999809265137 2.75600004196167 16777471
19.84600067138672 -7.355000019073486 2.196000099182129 16777471
26.985000610351562 -8.465999603271484 2.7290000915527344 16777471
26.624000549316406 -8.083999633789062 3.0439999103546143 16777471
22.726999282836914 -9.324000358581543 0.020999999716877937 16777471
25.104000091552734 -8.706000328063965 3.0439999103546143 16777471
18.917999267578125 -10.041000366210938 0.8709999918937683 16777471
28.134000778198242 -7.673999786376953 0.012000000104308128 16777471
21.711999893188477 -7.3470001220703125 2.0959999561309814 16777471
23.551000595092773 -10.065999984741211 1.4579999446868896 16777471
22.176000595092773 -8.595999717712402 0.026000000536441803 16777471
15.600000381469727 -7.60699987411499 3.059000015258789 16777471
20.003000259399414 -8.932000160217285 0.020999999716877937 16777471
25.256999969482422 -8.814000129699707 0.007000000216066837 16777471
19.833999633789062 -7.376999855041504 2.0199999809265137 16777471
17.80699920654297 -7.34499979019165 1.444000005722046 16777471
21.85300064086914 -7.348999977111816 0.5460000038146973 16777471
26.826000213623047 -8.687999725341797 3.0409998893737793 16777471
25.898000717163086 -9.564000129699707 0.007000000216066837 16777471
18.81800079345703 -7.322999954223633 0.4429999887943268 16777471
22.034000396728516 -8.204999923706055 0.02500000037252903 16777471
18.524999618530273 -7.961999893188477 0.017999999225139618 16777471
16.618000030517578 -7.3429999351501465 0.5569999814033508 16777471
19.284000396728516 -8.223999977111816 3.0380001068115234 16777471
15.430000305175781 -9.682999610900879 3.055000066757202 16777471
22.833999633789062 -7.388999938964844 3.058000087738037 16777471
27.3700008392334 -8.045000076293945 3.0460000038146973 16777471
20.31599998474121 -9.486000061035156 0.020999999716877937 16777471
20.900999069213867 -7.3470001220703125 2.062999963760376 16777471
23.886999130249023 -9.873000144958496 0.017000000923871994 16777471
21.93600082397461 -7.35099983215332 2.7149999141693115 16777471
26.30500030517578 -10.031999588012695 2.3980000019073486 16777471
14.850000381469727 -7.339000225067139 1.940000057220459 16777471
15.774999618530273 -9.800999641418457 1.0010000467300415 16777471
15.154999732971191 -8.206999778747559 2.6689999103546143 16777471
21.79800033569336 -9.704000473022461 3.0490000247955322 16777471
20.5310001373291 -7.3429999351501465 2.006999969482422 16777471
18.81800079345703 -7.2829999923706055 0.8980000019073486 16777471
20.327999114990234 -7.34499979019165 2.4820001125335693 16777471
17.9689998626709 -7.339000225067139 2.6530001163482666 16777471
15.47599983215332 -7.340000152587891 1.4989999532699585 16777471
28.05500030517578 -9.994000434875488 1.1059999465942383 16777471
15.744000434875488 -8.456000328063965 2.8350000381469727 16777471
20.510000228881836 -7.9670000076293945 3.0510001182556152 16777471
17.781999588012695 -9.324000358581543 3.053999900817871 16777471
28.148000717163086 -7.440999984741211 3.0460000038146973 16777471
24.312999725341797 -9.026000022888184 3.0429999828338623 16777471
26.725000381469727 -8.72700023651123 3.0450000762939453 16777471
25.641000747680664 -9.824000358581543 0.00800000037997961 16777471
26.288999557495117 -8.397000312805176 0.009999999776482582 16777471
16.672000885009766 -7.335000038146973 2.8380000591278076 16777471
20.277000427246094 -7.3460001945495605 1.4900000095367432 16777471
27.490999221801758 -8.12399959564209 0.012000000104308128 16777471
27.98200035095215 -9.501999855041504 3.046999931335449 33488896
25.35300064086914 -8.718999862670898 3.0420000553131104 16777471
17.54199981689453 -8.534000396728516 0.014999999664723873 16777471
17.55299949645996 -9.784000396728516 0.19699999690055847 16777471
17.073999404907227 -9.795000076293945 1.9769999980926514 16777471
15.998000144958496 -7.341000080108643 1.0859999656677246 16777471
26.070999145507812 -9.27299976348877 0.007000000216066837 16777471
14.670000076293945 -9.788000106811523 0.6489999890327454 16777471
26.83799934387207 -6.960999965667725 0.7620000243186951 16777471
26.427000045776367 -7.354000091552734 0.012000000104308128 16777471
25.823999404907227 -9.37600040435791 3.0360000133514404 16777471
26.371000289916992 -7.9029998779296875 0.012000000104308128 16777471
20.91900062561035 -7.943999767303467 0.02199999988079071 16777471
26.256000518798828 -10.01200008392334 2.0510001182556152 16777471
16.173999786376953 -7.406000137329102 0.746999979019165 16777471
26.652999877929688 -9.748000144958496 0.00800000037997961 16777471
20.63599967956543 -7.34499979019165 0.8830000162124634 16777471
14.928999900817871 -8.03499984741211 2.740999937057495 16777471
21.0049991607666 -8.121999740600586 0.020999999716877937 16777471
19.788000106811523 -9.5600004196167 0.020999999716877937 16777471
18.68600082397461 -9.015000343322754 3.0280001163482666 16777471
14.946000099182129 -9.793999671936035 2.6440000534057617 16777471
18.128999710083008 -9.79800033569336 1.7070000171661377 16777471
17.840999603271484 -7.340000152587891 2.7039999961853027 16777471
17.420000076293945 -7.3429999351501465 1.0839999914169312 16777471
15.585000038146973 -7.336999893188477 2.0339999198913574 16777471
15.246000289916992 -8.571999549865723 3.055999994277954 16777471
19.05900001525879 -7.578999996185303 0.017999999225139618 16777471
19.22800064086914 -8.769000053405762 3.059999942779541 16777471
23.349000930786133 -7.386000156402588 3.058000087738037 16777471
27.577999114990234 -9.187999725341797 0.009999999776482582 16777471
25.047000885009766 -9.140999794006348 3.0380001068115234 16777471
23.916000366210938 -7.6539998054504395 3.055000066757202 16777471
16.552000045776367 -9.793000221252441 1.7710000276565552 16777471
17.055999755859375 -7.915999889373779 0.010999999940395355 16777471
21.7450008392334 -9.904000282287598 1.7430000305175781 16777471
18.673999786376953 -8.562000274658203 0.01600000075995922 16777471
26.481000900268555 -9.772000312805176 0.007000000216066837 16777471
18.304000854492188 -8.107000350952148 0.017000000923871994 16777471
26.714000701904297 -6.942999839782715 0.6320000290870667 16777471
14.718999862670898 -8.480999946594238 3.055999994277954 16777471
17.406999588012695 -7.343999862670898 1.434000015258789 16777471
23.524999618530273 -6.894000053405762 0.25600001215934753 16777471
21.150999069213867 -7.35099983215332 2.953000068664551 16777471
27.549999237060547 -8.220999717712402 2.7330000400543213 16777471
16.4060001373291 -9.786999702453613 0.4740000069141388 16777471
22.268999099731445 -8.395000457763672 0.027000000700354576 16777471
26.933000564575195 -7.854000091552734 3.0420000553131104 16777471
20.768999099731445 -8.354999542236328 0.02199999988079071 16777471
25.55299949645996 -8.491999626159668 2.755000114440918 16777471
19.7549991607666 -7.34499979019165 2.927999973297119 16777471
16.961000442504883 -8.626999855041504 0.014999999664723873 16777471
26.18600082397461 -10.008999824523926 2.26200008392334 16777471
16.111000061035156 -9.793999671936035 2.9230000972747803 16777471
18.43400001525879 -8.480999946594238 2.760999917984009 16777471
27.756000518798828 -8.083000183105469 2.740000009536743 16777471
15.597000122070312 -7.3379998207092285 1.7999999523162842 16777471
17.107999801635742 -7.336999893188477 2.0959999561309814 16777471
20.44300079345703 -7.34499979019165 1.194000005722046 16777471
16.81999969482422 -8.444000244140625 3.055000066757202 16777471
16.78700065612793 -9.789999961853027 0.5929999947547913 16777471
20.347000122070312 -10.045999526977539 1.687000036239624 16777471
18.844999313354492 -9.986000061035156 1.7970000505447388 16777471
16.63800048828125 -9.616000175476074 0.01600000075995922 16777471
18.889999389648438 -10.027000427246094 1.8839999437332153 16777471
25.591999053955078 -6.86299991607666 0.09600000083446503 16777471
15.741000175476074 -9.133000373840332 3.052999973297119 16777471
22.458999633789062 -7.193999767303467 2.671999931335449 16777471
27.197999954223633 -8.88599967956543 3.0380001068115234 16777471
26.753000259399414 -10.006999969482422 2.871000051498413 16777471
14.722999572753906 -8.82800006866455 3.053999900817871 16777471
18.81399917602539 -7.343999862670898 3.0 16777471
18.892000198364258 -7.348999977111816 1.4919999837875366 16777471
17.4689998626709 -9.795000076293945 1.590000033378601 16777471
20.301000595092773 -7.3460001945495605 1.944000005722046 16777471
18.69099998474121 -7.7220001220703125 0.017999999225139618 16777471
20.110000610351562 -9.23900032043457 3.055000066757202 16777471
18.81599998474121 -7.90500020980835 0.01899999938905239 16777471
15.739999771118164 -9.855999946594238 1.4170000553131104 16777471
26.847000122070312 -6.8979997634887695 2.4639999866485596 16777471
21.441999435424805 -9.140999794006348 3.052999973297119 16777471
15.369999885559082 -7.336999893188477 2.5969998836517334 16777471
17.864999771118164 -9.531000137329102 3.053999900817871 16777471
28.131999969482422 -7.339000225067139 3.046999931335449 16777471
23.926000595092773 -7.486000061035156 3.059000015258789 16777471
27.525999069213867 -9.996000289916992 0.06400000303983688 16777471
18.20599937438965 -9.739999771118164 0.02199999988079071 16777471
17.979000091552734 -9.79800033569336 1.8250000476837158 16777471
24.04599952697754 -8.479999542236328 2.760999917984009 16777471
21.150999069213867 -9.027000427246094 0.023000000044703484 16777471
19.18600082397461 -7.3429999351501465 1.6319999694824219 16777471
26.87700080871582 -6.946000099182129 0.10300000011920929 16777471
18.851999282836914 -9.836000442504883 0.14100000262260437 16777471
16.344999313354492 -9.791000366210938 0.9940000176429749 16777471
20.149999618530273 -8.97700023651123 0.02199999988079071 16777471
16.16900062561035 -7.335000038146973 2.9070000648498535 16777471
25.908000946044922 -9.673999786376953 3.0360000133514404 16777471
19.299999237060547 -7.343999862670898 0.5910000205039978 16777471
20.45199966430664 -10.081000328063965 1.2070000171661377 16777471
16.660999298095703 -7.809999942779541 0.009999999776482582 16777471
26.969999313354492 -7.168000221252441 0.013000000268220901 16777471
18.849000930786133 -8.413000106811523 3.0390000343322754 16777471
19.150999069213867 -7.3470001220703125 0.33000001311302185 16777471
20.06999969482422 -7.34499979019165 2.134999990463257 16777471
27.586000442504883 -8.734999656677246 3.0420000553131104 16777471
27.982999801635742 -8.16100025177002 3.0460000038146973 16777471
20.822999954223633 -7.3520002365112305 3.0380001068115234 16777471
24.243000030517578 -8.812000274658203 0.00800000037997961 16777471
19.52899932861328 -8.515999794006348 2.8450000286102295 16777471
27.54599952697754 -8.331999778747559 2.703000068664551 16777471
17.527999877929688 -7.3420000076293945 0.5339999794960022 16777471
22.45800018310547 -7.059999942779541 2.7320001125335693 16777471
18.23900032043457 -9.79800033569336 1.656000018119812 16777471
23.95199966430664 -8.246000289916992 0.006000000052154064 16777471
18.74799919128418 -9.798999786376953 2.6640000343322754 16777471
14.838000297546387 -9.282999992370605 0.009999999776482582 16777471
20.64699935913086 -9.895999908447266 0.023000000044703484 16777471
15.692999839782715 -8.769000053405762 3.055999994277954 16777471
19.636999130249023 -8.630999565124512 0.017999999225139618 16777471
28.035999298095703 -9.982000350952148 0.7620000243186951 16777471
22.601999282836914 -9.25100040435791 3.0510001182556152 16777471
15.159000396728516 -7.3420000076293945 0.890999972820282 16777471
18.864999771118164 -9.515000343322754 0.017999999225139618 16777471
14.673999786376953 -7.3460001945495605 0.5550000071525574 16777471
21.83300018310547 -9.782999992370605 0.029999999329447746 16777471
23.739999771118164 -7.815000057220459 0.006000000052154064 16777471
24.197999954223633 -7.875999927520752 3.052999973297119 16777471
22.176000595092773 -7.353000164031982 2.747999906539917 16777471
20.530000686645508 -9.687999725341797 0.02199999988079071 16777471
19.531999588012695 -7.35099983215332 0.07599999755620956 16777471
16.33300018310547 -7.9070000648498535 3.056999921798706 16777471
27.6560001373291 -7.235000133514404 0.013000000268220901 16777471
24.454999923706055 -9.227999687194824 3.0409998893737793 16777471
19.881000518798828 -9.41100025177002 0.019999999552965164 16777471
23.701000213623047 -10.048999786376953 2.3329999446868896 16777471
18.759000778198242 -8.883999824523926 3.0290000438690186 16777471
23.422000885009766 -7.381999969482422 0.012000000104308128 16777471
20.857999801635742 -8.098999977111816 0.023000000044703484 16777471
20.558000564575195 -9.61400032043457 0.02199999988079071 16777471
26.214000701904297 -8.986000061035156 0.00800000037997961 16777471
18.996999740600586 -10.008000373840332 0.8849999904632568 16777471
26.715999603271484 -6.956999778747559 0.7400000095367432 16777471
21.474000930786133 -7.420000076293945 1.8220000267028809 16777471
16.14900016784668 -9.5 0.012000000104308128 16777471
14.649999618530273 -7.366000175476074 1.562000036239624 16777471
18.483999252319336 -7.34499979019165 2.259000062942505 16777471
25.27400016784668 -6.940000057220459 0.640999972820282 16777471
16.969999313354492 -8.472999572753906 2.759000062942505 16777471
25.871000289916992 -8.416000366210938 0.00800000037997961 16777471
26.929000854492188 -9.491999626159668 3.0420000553131104 16777471
19.736000061035156 -8.279000282287598 0.01899999938905239 16777471
18.304000854492188 -9.739999771118164 3.0230000019073486 16777471
23.08799934387207 -7.2210001945495605 0.019999999552965164 16777471
20.954999923706055 -9.312000274658203 3.052999973297119 16777471
23.429000854492188 -8.239999771118164 2.7249999046325684 16777471
25.570999145507812 -8.468000411987305 2.753000020980835 16777471
23.50200080871582 -7.206999778747559 3.072000026702881 16777471
23.780000686645508 -7.830999851226807 0.004999999888241291 16777471
21.715999603271484 -9.972000122070312 2.068000078201294 16777471
15.041999816894531 -7.748000144958496 0.2669999897480011 16777471
24.389999389648438 -6.995999813079834 0.04399999976158142 16777471
15.932000160217285 -9.102999687194824 0.013000000268220901 16777471
19.302000045776367 -7.3460001945495605 1.4589999914169312 16777471
20.729000091552734 -8.493000030517578 2.753000020980835 16777471
17.882999420166016 -7.3480000495910645 0.3880000114440918 16777471
22.635000228881836 -9.440999984741211 0.019999999552965164 16777471
17.548999786376953 -9.449999809265137 0.01600000075995922 16777471
20.711999893188477 -7.34499979019165 2.490000009536743 16777471
18.865999221801758 -9.940999984741211 0.9290000200271606 16777471
25.225000381469727 -7.581999778747559 3.052000045776367 16777471
22.323999404907227 -9.324000358581543 3.052000045776367 16777471
23.65999984741211 -10.038000106811523 0.7459999918937683 16777471
20.10300064086914 -9.918999671936035 0.02199999988079071 16777471
24.947999954223633 -7.379000186920166 0.004999999888241291 16777471
25.194000244140625 -8.902000427246094 0.007000000216066837 16777471
25.753999710083008 -8.109000205993652 3.0439999103546143 16777471
17.22599983215332 -7.464000225067139 3.055000066757202 16777471
21.42099952697754 -7.3470001220703125 1.2929999828338623 16777471
16.264999389648438 -7.3420000076293945 0.7319999933242798 16777471
17.166000366210938 -9.795999526977539 2.1559998989105225 16777471
22.479999542236328 -7.488999843597412 3.056999921798706 16777471
20.118999481201172 -7.34499979019165 1.3890000581741333 16777471
19.371999740600586 -9.680999755859375 0.019999999552965164 16777471
19.759000778198242 -9.37600040435791 0.019999999552965164 16777471
17.788000106811523 -9.798999786376953 2.13700008392334 16777471
